ply
format ascii 1.0
element vertex 1121
property float x
property float y
property float z
property uchar red
property uchar green
property uchar blue
end_header
-38.000000 61.000000 153.600006 4 11 9 
-39.000000 61.000000 153.600006 5 12 9 
-40.000000 61.000000 153.600006 5 11 9 
-41.000000 61.000000 153.600006 5 11 9 
-42.000000 61.000000 153.600006 5 11 9 
-43.000000 61.000000 153.600006 4 11 8 
-44.000000 61.000000 153.600006 4 11 8 
-45.000000 61.000000 153.600006 4 11 8 
-46.000000 61.000000 153.600006 4 11 8 
-47.000000 61.000000 153.600006 4 11 8 
-48.000000 61.000000 153.600006 5 12 9 
-49.000000 61.000000 153.600006 9 17 11 
-50.000000 61.000000 153.600006 30 35 20 
-51.000000 61.000000 153.600006 64 59 38 
-52.000000 61.000000 153.600006 77 68 46 
-53.000000 61.000000 153.600006 80 69 47 
-54.000000 61.000000 153.600006 78 68 45 
6.269006 -5.707603 -14.371930 87 77 50 
6.044445 -5.422222 -13.653334 88 78 51 
5.841270 -5.164021 -13.003175 87 75 48 
5.833333 -5.083333 -12.800000 86 74 47 
5.825641 -5.005128 -12.603078 90 76 49 
5.877551 -4.979592 -12.538776 90 76 48 
5.959184 -4.979592 -12.538776 90 77 48 
-77.000000 61.000000 153.600006 51 51 37 
-78.000000 61.000000 153.600006 50 50 36 
-79.000000 61.000000 153.600006 51 51 37 
-80.000000 61.000000 153.600006 51 51 37 
-81.000000 61.000000 153.600006 51 51 37 
-82.000000 61.000000 153.600006 51 51 37 
-83.000000 61.000000 153.600006 51 51 37 
-84.000000 61.000000 153.600006 52 51 36 
-85.000000 61.000000 153.600006 47 48 36 
-86.000000 61.000000 153.600006 31 41 32 
-87.000000 61.000000 153.600006 34 43 32 
-704.000000 488.000000 1228.800049 49 50 37 
712.000000 -488.000000 -1228.800049 52 51 38 
720.000000 -488.000000 -1228.800049 51 50 37 
728.000000 -488.000000 -1228.800049 51 50 37 
490.666656 -325.333344 -819.200012 51 50 37 
496.000000 -325.333344 -819.200012 50 50 37 
501.333344 -325.333344 -819.200012 49 49 36 
81.000000 62.000000 153.600006 6 13 11 
80.000000 62.000000 153.600006 6 13 11 
79.000000 62.000000 153.600006 6 13 11 
78.000000 62.000000 153.600006 6 13 11 
77.000000 62.000000 153.600006 6 13 11 
76.000000 62.000000 153.600006 6 14 11 
75.000000 62.000000 153.600006 6 14 11 
74.000000 62.000000 153.600006 7 15 12 
73.000000 62.000000 153.600006 8 15 12 
72.000000 62.000000 153.600006 8 16 12 
71.000000 62.000000 153.600006 8 16 13 
70.000000 62.000000 153.600006 9 17 13 
69.000000 62.000000 153.600006 10 17 13 
68.000000 62.000000 153.600006 10 17 13 
53.000000 62.000000 153.600006 137 107 73 
52.000000 62.000000 153.600006 137 106 73 
51.000000 62.000000 153.600006 137 107 74 
50.000000 62.000000 153.600006 139 109 76 
49.000000 62.000000 153.600006 139 108 75 
-272.000000 -496.000000 -1228.800049 203 188 169 
-132.000000 -248.000000 -614.400024 167 153 150 
-128.000000 -248.000000 -614.400024 165 156 150 
-99.199997 -198.399994 -491.520020 199 188 168 
-68.571426 -141.714279 -351.085724 207 193 169 
-66.285713 -141.714279 -351.085724 212 196 172 
-56.000000 -124.000000 -307.200012 209 193 168 
-54.000000 -124.000000 -307.200012 206 190 168 
-41.599998 -99.199997 -245.760010 189 176 161 
-40.000000 -99.199997 -245.760010 185 175 159 
-38.400002 -99.199997 -245.760010 203 190 167 
-36.799999 -99.199997 -245.760010 215 201 176 
-35.200001 -99.199997 -245.760010 220 203 177 
-30.545454 -90.181816 -223.418198 211 195 170 
-32.000000 -99.199997 -245.760010 207 192 169 
-33.777779 -110.222221 -273.066681 202 189 167 
-41.142857 -141.714279 -351.085724 205 191 168 
-54.400002 -198.399994 -491.520020 208 193 169 
-128.000000 -496.000000 -1228.800049 206 191 167 
-inf -inf -inf 196 179 157 
-inf -inf -inf 188 172 151 
4.000000 62.000000 153.600006 132 103 70 
3.000000 62.000000 153.600006 132 102 68 
-16.000000 62.000000 153.600006 13 22 16 
-17.000000 62.000000 153.600006 14 23 17 
-18.000000 62.000000 153.600006 18 25 19 
-19.000000 62.000000 153.600006 14 21 14 
-20.000000 62.000000 153.600006 10 17 12 
-21.000000 62.000000 153.600006 10 17 12 
-22.000000 62.000000 153.600006 10 17 11 
-23.000000 62.000000 153.600006 9 17 12 
-24.000000 62.000000 153.600006 9 17 12 
-25.000000 62.000000 153.600006 9 17 12 
-26.000000 62.000000 153.600006 9 17 12 
-27.000000 62.000000 153.600006 9 17 12 
-28.000000 62.000000 153.600006 9 17 12 
-29.000000 62.000000 153.600006 9 16 12 
-30.000000 62.000000 153.600006 8 16 11 
-31.000000 62.000000 153.600006 7 15 11 
-32.000000 62.000000 153.600006 6 14 10 
-33.000000 62.000000 153.600006 6 14 10 
-34.000000 62.000000 153.600006 6 14 10 
-35.000000 62.000000 153.600006 5 12 9 
-36.000000 62.000000 153.600006 4 12 9 
-37.000000 62.000000 153.600006 5 12 9 
-38.000000 62.000000 153.600006 5 12 9 
-39.000000 62.000000 153.600006 7 14 11 
-40.000000 62.000000 153.600006 7 14 10 
-41.000000 62.000000 153.600006 5 12 9 
-42.000000 62.000000 153.600006 5 12 9 
-43.000000 62.000000 153.600006 6 13 10 
-44.000000 62.000000 153.600006 5 12 9 
-45.000000 62.000000 153.600006 5 11 9 
-46.000000 62.000000 153.600006 4 11 9 
-47.000000 62.000000 153.600006 4 11 8 
-48.000000 62.000000 153.600006 5 12 9 
-49.000000 62.000000 153.600006 10 18 11 
-50.000000 62.000000 153.600006 37 41 25 
-51.000000 62.000000 153.600006 70 64 42 
-52.000000 62.000000 153.600006 79 70 47 
-53.000000 62.000000 153.600006 80 70 48 
-54.000000 62.000000 153.600006 79 69 46 
6.232558 -5.767442 -14.288373 87 77 50 
6.044445 -5.511111 -13.653334 89 79 52 
5.872340 -5.276596 -13.072341 88 76 50 
5.833333 -5.166667 -12.800000 86 73 47 
5.825641 -5.087180 -12.603078 89 76 48 
5.847716 -5.035533 -12.475127 89 76 48 
5.928934 -5.035533 -12.475127 89 77 48 
5.979798 -5.010101 -12.412122 87 76 48 
-78.000000 62.000000 153.600006 50 50 36 
-79.000000 62.000000 153.600006 51 51 36 
-80.000000 62.000000 153.600006 52 51 37 
-81.000000 62.000000 153.600006 52 51 37 
-82.000000 62.000000 153.600006 51 51 37 
-83.000000 62.000000 153.600006 51 51 37 
-84.000000 62.000000 153.600006 51 51 37 
-85.000000 62.000000 153.600006 44 47 35 
-86.000000 62.000000 153.600006 39 44 34 
-87.000000 62.000000 153.600006 39 45 33 
-704.000000 496.000000 1228.800049 45 48 35 
712.000000 -496.000000 -1228.800049 51 51 38 
720.000000 -496.000000 -1228.800049 50 50 37 
728.000000 -496.000000 -1228.800049 50 50 37 
490.666656 -330.666656 -819.200012 49 49 37 
496.000000 -330.666656 -819.200012 43 46 35 
501.333344 -330.666656 -819.200012 40 45 34 
81.000000 63.000000 153.600006 5 12 10 
80.000000 63.000000 153.600006 6 13 10 
79.000000 63.000000 153.600006 6 13 11 
78.000000 63.000000 153.600006 6 13 11 
77.000000 63.000000 153.600006 6 13 11 
76.000000 63.000000 153.600006 7 14 12 
75.000000 63.000000 153.600006 9 16 13 
74.000000 63.000000 153.600006 10 18 14 
73.000000 63.000000 153.600006 11 19 14 
72.000000 63.000000 153.600006 11 19 15 
71.000000 63.000000 153.600006 12 19 15 
70.000000 63.000000 153.600006 12 20 15 
69.000000 63.000000 153.600006 13 21 15 
68.000000 63.000000 153.600006 13 21 16 
67.000000 63.000000 153.600006 11 20 15 
53.000000 63.000000 153.600006 137 106 74 
52.000000 63.000000 153.600006 138 107 75 
51.000000 63.000000 153.600006 139 108 75 
50.000000 63.000000 153.600006 139 108 75 
49.000000 63.000000 153.600006 138 107 75 
-181.333328 -336.000000 -819.200012 204 189 170 
-105.599998 -201.600006 -491.520020 161 148 148 
-102.400002 -201.600006 -491.520020 158 151 147 
-82.666664 -168.000000 -409.600006 200 189 168 
-68.571426 -144.000000 -351.085724 207 193 169 
-51.555557 -112.000000 -273.066681 211 195 171 
-44.799999 -100.800003 -245.760010 209 193 169 
-43.200001 -100.800003 -245.760010 209 195 173 
-37.818180 -91.636360 -223.418198 192 179 163 
-30.769230 -77.538460 -189.046158 184 174 157 
-27.428572 -72.000000 -175.542862 203 191 168 
-26.285715 -72.000000 -175.542862 215 200 175 
-25.142857 -72.000000 -175.542862 215 199 173 
-24.000000 -72.000000 -175.542862 209 194 169 
-22.857143 -72.000000 -175.542862 209 193 169 
-23.384615 -77.538460 -189.046158 208 194 170 
-24.000000 -84.000000 -204.800003 208 194 170 
-27.200001 -100.800003 -245.760010 211 196 172 
-51.200001 -201.600006 -491.520020 208 193 170 
-80.000000 -336.000000 -819.200012 197 180 159 
-inf -inf -inf 181 163 150 
4.000000 63.000000 153.600006 133 103 70 
3.000000 63.000000 153.600006 132 103 69 
2.000000 63.000000 153.600006 132 102 69 
-16.000000 63.000000 153.600006 14 22 16 
-17.000000 63.000000 153.600006 14 23 17 
-18.000000 63.000000 153.600006 28 34 25 
-19.000000 63.000000 153.600006 43 42 32 
-20.000000 63.000000 153.600006 30 31 23 
-21.000000 63.000000 153.600006 23 27 18 
-22.000000 63.000000 153.600006 22 26 18 
-23.000000 63.000000 153.600006 21 25 18 
-24.000000 63.000000 153.600006 21 25 18 
-25.000000 63.000000 153.600006 21 24 17 
-26.000000 63.000000 153.600006 20 24 16 
-27.000000 63.000000 153.600006 19 24 16 
-28.000000 63.000000 153.600006 19 24 16 
-29.000000 63.000000 153.600006 18 23 16 
-30.000000 63.000000 153.600006 17 22 15 
-31.000000 63.000000 153.600006 15 20 14 
-32.000000 63.000000 153.600006 14 19 13 
-33.000000 63.000000 153.600006 14 19 13 
-34.000000 63.000000 153.600006 13 19 13 
-35.000000 63.000000 153.600006 12 17 12 
-36.000000 63.000000 153.600006 12 18 13 
-37.000000 63.000000 153.600006 13 19 13 
-38.000000 63.000000 153.600006 13 19 13 
-39.000000 63.000000 153.600006 13 19 13 
-40.000000 63.000000 153.600006 12 17 13 
-41.000000 63.000000 153.600006 11 16 12 
-42.000000 63.000000 153.600006 10 16 12 
-43.000000 63.000000 153.600006 9 16 11 
-44.000000 63.000000 153.600006 6 13 9 
-45.000000 63.000000 153.600006 5 11 9 
-46.000000 63.000000 153.600006 4 11 9 
-47.000000 63.000000 153.600006 4 11 8 
-48.000000 63.000000 153.600006 5 12 9 
-49.000000 63.000000 153.600006 12 19 12 
-50.000000 63.000000 153.600006 45 47 30 
-51.000000 63.000000 153.600006 75 68 45 
-52.000000 63.000000 153.600006 80 70 47 
-53.000000 63.000000 153.600006 80 70 47 
-54.000000 63.000000 153.600006 79 69 46 
6.090909 -5.727273 -13.963637 88 77 50 
6.011050 -5.569061 -13.577901 90 80 53 
5.872340 -5.361702 -13.072341 88 77 51 
5.833333 -5.250000 -12.800000 86 74 48 
5.825641 -5.169231 -12.603078 89 77 49 
5.847716 -5.116751 -12.475127 89 77 49 
5.898990 -5.090909 -12.412122 89 77 49 
5.979798 -5.090909 -12.412122 87 75 49 
6.060606 -5.090909 -12.412122 72 64 42 
-78.000000 63.000000 153.600006 50 50 36 
-79.000000 63.000000 153.600006 50 50 35 
-80.000000 63.000000 153.600006 51 50 37 
-81.000000 63.000000 153.600006 51 51 37 
-82.000000 63.000000 153.600006 52 51 37 
-83.000000 63.000000 153.600006 52 51 37 
-84.000000 63.000000 153.600006 49 50 37 
-85.000000 63.000000 153.600006 45 48 34 
-86.000000 63.000000 153.600006 48 48 35 
-87.000000 63.000000 153.600006 49 49 35 
-469.333344 336.000000 819.200012 45 47 35 
1424.000000 -1008.000000 -2457.600098 49 49 36 
720.000000 -504.000000 -1228.800049 50 49 36 
728.000000 -504.000000 -1228.800049 50 49 36 
736.000000 -504.000000 -1228.800049 48 48 37 
496.000000 -336.000000 -819.200012 40 45 34 
501.333344 -336.000000 -819.200012 37 43 33 
81.000000 64.000000 153.600006 5 12 10 
80.000000 64.000000 153.600006 6 13 10 
79.000000 64.000000 153.600006 6 13 11 
78.000000 64.000000 153.600006 6 13 11 
77.000000 64.000000 153.600006 8 15 12 
76.000000 64.000000 153.600006 11 18 15 
75.000000 64.000000 153.600006 12 20 16 
74.000000 64.000000 153.600006 12 20 16 
73.000000 64.000000 153.600006 13 21 16 
72.000000 64.000000 153.600006 13 21 16 
71.000000 64.000000 153.600006 13 21 17 
70.000000 64.000000 153.600006 14 21 16 
69.000000 64.000000 153.600006 16 24 18 
68.000000 64.000000 153.600006 15 23 17 
67.000000 64.000000 153.600006 12 21 16 
53.000000 64.000000 153.600006 137 106 73 
52.000000 64.000000 153.600006 137 106 73 
51.000000 64.000000 153.600006 137 105 73 
50.000000 64.000000 153.600006 137 106 73 
49.000000 64.000000 153.600006 138 106 74 
-181.333328 -341.333344 -819.200012 202 186 168 
-105.599998 -204.800003 -491.520020 159 146 147 
-102.400002 -204.800003 -491.520020 161 154 149 
-82.666664 -170.666672 -409.600006 200 189 167 
-53.333332 -113.777779 -273.066681 207 192 168 
-46.400002 -102.400002 -245.760010 211 195 171 
-40.727272 -93.090912 -223.418198 208 192 170 
-39.272728 -93.090912 -223.418198 208 193 172 
-32.000000 -78.769234 -189.046158 192 178 162 
-28.571428 -73.142860 -175.542862 184 173 158 
-25.600000 -68.266670 -163.840012 203 191 169 
-24.533333 -68.266670 -163.840012 214 199 175 
-23.466667 -68.266670 -163.840012 213 197 172 
-22.400000 -68.266670 -163.840012 210 194 169 
-21.333334 -68.266670 -163.840012 208 192 169 
-20.266666 -68.266670 -163.840012 208 192 169 
-20.571428 -73.142860 -175.542862 206 191 167 
-22.666666 -85.333336 -204.800003 207 191 168 
-25.600000 -102.400002 -245.760010 205 189 166 
-60.000000 -256.000000 -614.400024 196 178 157 
-74.666664 -341.333344 -819.200012 176 159 148 
5.000000 64.000000 153.600006 134 104 71 
4.000000 64.000000 153.600006 134 103 70 
3.000000 64.000000 153.600006 133 103 69 
2.000000 64.000000 153.600006 132 102 68 
-16.000000 64.000000 153.600006 32 37 30 
-17.000000 64.000000 153.600006 30 34 28 
-18.000000 64.000000 153.600006 38 42 32 
-19.000000 64.000000 153.600006 62 59 45 
-20.000000 64.000000 153.600006 46 44 32 
-21.000000 64.000000 153.600006 35 36 24 
-22.000000 64.000000 153.600006 34 36 24 
-23.000000 64.000000 153.600006 33 35 24 
-24.000000 64.000000 153.600006 33 35 24 
-25.000000 64.000000 153.600006 33 34 23 
-26.000000 64.000000 153.600006 33 33 23 
-27.000000 64.000000 153.600006 32 33 22 
-28.000000 64.000000 153.600006 32 34 22 
-29.000000 64.000000 153.600006 32 34 22 
-30.000000 64.000000 153.600006 32 33 22 
-31.000000 64.000000 153.600006 31 33 23 
-32.000000 64.000000 153.600006 31 33 23 
-33.000000 64.000000 153.600006 31 33 22 
-34.000000 64.000000 153.600006 29 31 21 
-35.000000 64.000000 153.600006 28 30 21 
-36.000000 64.000000 153.600006 28 31 20 
-37.000000 64.000000 153.600006 28 31 20 
-38.000000 64.000000 153.600006 26 29 19 
-39.000000 64.000000 153.600006 27 29 19 
-40.000000 64.000000 153.600006 26 27 19 
-41.000000 64.000000 153.600006 24 27 18 
-42.000000 64.000000 153.600006 22 25 17 
-43.000000 64.000000 153.600006 14 18 13 
-44.000000 64.000000 153.600006 7 13 10 
-45.000000 64.000000 153.600006 4 11 8 
-46.000000 64.000000 153.600006 4 11 9 
-47.000000 64.000000 153.600006 4 11 9 
-48.000000 64.000000 153.600006 5 12 9 
-49.000000 64.000000 153.600006 14 23 14 
-50.000000 64.000000 153.600006 53 54 35 
-51.000000 64.000000 153.600006 79 70 48 
-52.000000 64.000000 153.600006 80 70 47 
-53.000000 64.000000 153.600006 80 70 46 
-54.000000 64.000000 153.600006 79 68 45 
6.022472 -5.752809 -13.806742 88 77 51 
5.978022 -5.626374 -13.503297 90 79 54 
5.841270 -5.417989 -13.003175 87 76 51 
5.833333 -5.333333 -12.800000 86 74 48 
5.795918 -5.224490 -12.538776 89 77 49 
5.847716 -5.197969 -12.475127 88 77 49 
5.898990 -5.171717 -12.412122 88 77 49 
5.979798 -5.171717 -12.412122 87 76 49 
6.060606 -5.171717 -12.412122 72 63 43 
-78.000000 64.000000 153.600006 49 49 36 
-79.000000 64.000000 153.600006 50 49 35 
-80.000000 64.000000 153.600006 50 50 36 
-81.000000 64.000000 153.600006 50 50 36 
-82.000000 64.000000 153.600006 50 49 36 
-83.000000 64.000000 153.600006 50 49 36 
-84.000000 64.000000 153.600006 49 49 35 
-85.000000 64.000000 153.600006 48 49 35 
-86.000000 64.000000 153.600006 49 49 36 
-87.000000 64.000000 153.600006 49 50 37 
-352.000000 256.000000 614.400024 48 48 36 
inf -inf -inf 48 48 36 
1440.000000 -1024.000000 -2457.600098 49 48 36 
728.000000 -512.000000 -1228.800049 49 48 36 
736.000000 -512.000000 -1228.800049 48 48 37 
744.000000 -512.000000 -1228.800049 42 46 35 
752.000000 -512.000000 -1228.800049 41 45 34 
81.000000 65.000000 153.600006 5 13 10 
80.000000 65.000000 153.600006 6 14 11 
79.000000 65.000000 153.600006 8 16 13 
78.000000 65.000000 153.600006 10 17 14 
77.000000 65.000000 153.600006 12 19 16 
76.000000 65.000000 153.600006 13 21 17 
75.000000 65.000000 153.600006 13 22 17 
74.000000 65.000000 153.600006 13 22 17 
73.000000 65.000000 153.600006 14 22 17 
72.000000 65.000000 153.600006 13 22 17 
71.000000 65.000000 153.600006 13 21 17 
70.000000 65.000000 153.600006 15 23 18 
69.000000 65.000000 153.600006 16 24 19 
68.000000 65.000000 153.600006 13 21 16 
67.000000 65.000000 153.600006 12 21 17 
53.000000 65.000000 153.600006 137 106 73 
52.000000 65.000000 153.600006 138 106 74 
51.000000 65.000000 153.600006 137 106 74 
50.000000 65.000000 153.600006 137 106 74 
-181.333328 -346.666656 -819.200012 202 185 167 
-105.599998 -208.000000 -491.520020 165 150 148 
-85.333336 -173.333328 -409.600006 166 157 150 
-82.666664 -173.333328 -409.600006 201 188 167 
-53.333332 -115.555557 -273.066681 206 191 168 
-42.181820 -94.545456 -223.418198 209 194 172 
-40.727272 -94.545456 -223.418198 207 191 169 
-36.000000 -86.666664 -204.800003 205 189 167 
-29.714285 -74.285713 -175.542862 188 174 159 
-26.666666 -69.333336 -163.840012 181 171 157 
-25.600000 -69.333336 -163.840012 203 189 169 
-24.533333 -69.333336 -163.840012 212 196 173 
-22.000000 -65.000000 -153.600006 214 197 173 
-21.000000 -65.000000 -153.600006 210 193 169 
-20.000000 -65.000000 -153.600006 209 192 169 
-20.266666 -69.333336 -163.840012 209 192 169 
-19.200001 -69.333336 -163.840012 206 190 166 
-19.428572 -74.285713 -175.542862 205 189 166 
-21.333334 -86.666664 -204.800003 203 186 163 
-48.000000 -208.000000 -491.520020 193 175 154 
-74.666664 -346.666656 -819.200012 173 156 147 
5.000000 65.000000 153.600006 134 103 70 
4.000000 65.000000 153.600006 134 103 69 
3.000000 65.000000 153.600006 133 102 69 
2.000000 65.000000 153.600006 132 102 68 
-16.000000 65.000000 153.600006 46 49 39 
-17.000000 65.000000 153.600006 43 46 38 
-18.000000 65.000000 153.600006 42 46 34 
-19.000000 65.000000 153.600006 64 61 47 
-20.000000 65.000000 153.600006 47 46 32 
-21.000000 65.000000 153.600006 36 37 24 
-22.000000 65.000000 153.600006 36 37 24 
-23.000000 65.000000 153.600006 35 36 24 
-24.000000 65.000000 153.600006 35 36 23 
-25.000000 65.000000 153.600006 34 36 23 
-26.000000 65.000000 153.600006 34 36 24 
-27.000000 65.000000 153.600006 35 36 24 
-28.000000 65.000000 153.600006 35 35 24 
-29.000000 65.000000 153.600006 34 36 24 
-30.000000 65.000000 153.600006 35 37 24 
-31.000000 65.000000 153.600006 39 40 26 
-32.000000 65.000000 153.600006 41 41 27 
-33.000000 65.000000 153.600006 37 38 25 
-34.000000 65.000000 153.600006 33 35 23 
-35.000000 65.000000 153.600006 32 34 23 
-36.000000 65.000000 153.600006 32 34 22 
-37.000000 65.000000 153.600006 31 33 21 
-38.000000 65.000000 153.600006 29 32 20 
-39.000000 65.000000 153.600006 30 32 20 
-40.000000 65.000000 153.600006 29 32 20 
-41.000000 65.000000 153.600006 27 31 19 
-42.000000 65.000000 153.600006 24 28 18 
-43.000000 65.000000 153.600006 15 20 13 
-44.000000 65.000000 153.600006 7 13 9 
-45.000000 65.000000 153.600006 5 11 9 
-46.000000 65.000000 153.600006 4 11 9 
-47.000000 65.000000 153.600006 4 11 9 
-48.000000 65.000000 153.600006 5 13 9 
-49.000000 65.000000 153.600006 18 27 17 
-50.000000 65.000000 153.600006 59 59 40 
-51.000000 65.000000 153.600006 81 71 49 
-52.000000 65.000000 153.600006 81 71 48 
-53.000000 65.000000 153.600006 80 69 46 
-54.000000 65.000000 153.600006 79 68 45 
6.022472 -5.842697 -13.806742 88 76 51 
5.978022 -5.714286 -13.503297 89 78 53 
5.841270 -5.502645 -13.003175 88 76 50 
5.833333 -5.416667 -12.800000 88 76 49 
5.795918 -5.306122 -12.538776 90 77 50 
5.847716 -5.279188 -12.475127 90 77 50 
5.898990 -5.252525 -12.412122 89 77 51 
5.979798 -5.252525 -12.412122 88 77 51 
6.060606 -5.252525 -12.412122 73 64 44 
-78.000000 65.000000 153.600006 48 48 35 
-79.000000 65.000000 153.600006 49 49 35 
-80.000000 65.000000 153.600006 49 49 36 
-81.000000 65.000000 153.600006 49 49 35 
-82.000000 65.000000 153.600006 48 48 35 
-83.000000 65.000000 153.600006 49 48 36 
-84.000000 65.000000 153.600006 50 49 36 
-85.000000 65.000000 153.600006 50 49 36 
-86.000000 65.000000 153.600006 50 50 36 
-87.000000 65.000000 153.600006 49 49 36 
-352.000000 260.000000 614.400024 50 49 36 
inf -inf -inf 49 48 35 
1440.000000 -1040.000000 -2457.600098 49 48 36 
728.000000 -520.000000 -1228.800049 49 48 36 
736.000000 -520.000000 -1228.800049 49 49 36 
744.000000 -520.000000 -1228.800049 48 48 36 
752.000000 -520.000000 -1228.800049 46 48 35 
81.000000 66.000000 153.600006 10 17 14 
80.000000 66.000000 153.600006 15 23 18 
79.000000 66.000000 153.600006 20 27 22 
78.000000 66.000000 153.600006 23 31 25 
77.000000 66.000000 153.600006 26 33 27 
76.000000 66.000000 153.600006 28 35 28 
75.000000 66.000000 153.600006 31 37 31 
74.000000 66.000000 153.600006 33 39 33 
73.000000 66.000000 153.600006 39 48 42 
72.000000 66.000000 153.600006 44 54 45 
71.000000 66.000000 153.600006 20 28 21 
70.000000 66.000000 153.600006 17 24 18 
69.000000 66.000000 153.600006 13 21 16 
68.000000 66.000000 153.600006 13 21 16 
67.000000 66.000000 153.600006 12 21 17 
53.000000 66.000000 153.600006 138 106 74 
52.000000 66.000000 153.600006 138 106 75 
51.000000 66.000000 153.600006 138 106 74 
50.000000 66.000000 153.600006 138 106 74 
-181.333328 -352.000000 -819.200012 205 187 168 
-105.599998 -211.199997 -491.520020 181 164 155 
-85.333336 -176.000000 -409.600006 179 167 155 
-82.666664 -176.000000 -409.600006 198 183 164 
-53.333332 -117.333336 -273.066681 202 186 167 
-42.181820 -96.000000 -223.418198 198 183 166 
-40.727272 -96.000000 -223.418198 203 188 168 
-36.000000 -88.000000 -204.800003 207 190 168 
-29.714285 -75.428574 -175.542862 188 174 160 
-26.666666 -70.400002 -163.840012 181 170 158 
-25.600000 -70.400002 -163.840012 204 189 168 
-24.533333 -70.400002 -163.840012 210 194 171 
-22.000000 -66.000000 -153.600006 216 198 175 
-21.000000 -66.000000 -153.600006 212 194 171 
-20.000000 -66.000000 -153.600006 210 193 171 
-20.266666 -70.400002 -163.840012 209 191 168 
-19.200001 -70.400002 -163.840012 206 189 166 
-18.133333 -70.400002 -163.840012 206 189 166 
-21.333334 -88.000000 -204.800003 203 185 163 
-48.000000 -211.199997 -491.520020 192 174 154 
-56.000000 -264.000000 -614.400024 176 157 147 
5.000000 66.000000 153.600006 134 102 69 
4.000000 66.000000 153.600006 134 102 70 
3.000000 66.000000 153.600006 133 101 69 
2.000000 66.000000 153.600006 132 100 67 
-16.000000 66.000000 153.600006 33 40 30 
-17.000000 66.000000 153.600006 40 45 35 
-18.000000 66.000000 153.600006 42 46 34 
-19.000000 66.000000 153.600006 65 61 47 
-20.000000 66.000000 153.600006 48 45 32 
-21.000000 66.000000 153.600006 36 37 24 
-22.000000 66.000000 153.600006 34 36 23 
-23.000000 66.000000 153.600006 34 36 24 
-24.000000 66.000000 153.600006 34 36 23 
-25.000000 66.000000 153.600006 34 35 23 
-26.000000 66.000000 153.600006 33 35 23 
-27.000000 66.000000 153.600006 35 36 23 
-28.000000 66.000000 153.600006 35 36 23 
-29.000000 66.000000 153.600006 35 36 24 
-30.000000 66.000000 153.600006 37 39 25 
-31.000000 66.000000 153.600006 51 50 35 
-32.000000 66.000000 153.600006 58 53 40 
-33.000000 66.000000 153.600006 47 45 32 
-34.000000 66.000000 153.600006 37 38 24 
-35.000000 66.000000 153.600006 33 35 22 
-36.000000 66.000000 153.600006 31 33 21 
-37.000000 66.000000 153.600006 30 33 21 
-38.000000 66.000000 153.600006 29 32 21 
-39.000000 66.000000 153.600006 29 32 20 
-40.000000 66.000000 153.600006 28 32 20 
-41.000000 66.000000 153.600006 27 31 19 
-42.000000 66.000000 153.600006 24 28 18 
-43.000000 66.000000 153.600006 15 20 13 
-44.000000 66.000000 153.600006 7 13 9 
-45.000000 66.000000 153.600006 5 11 8 
-46.000000 66.000000 153.600006 4 11 9 
-47.000000 66.000000 153.600006 4 11 9 
-48.000000 66.000000 153.600006 6 14 9 
-49.000000 66.000000 153.600006 24 33 21 
-50.000000 66.000000 153.600006 64 63 43 
-51.000000 66.000000 153.600006 81 71 49 
-52.000000 66.000000 153.600006 81 71 48 
-53.000000 66.000000 153.600006 81 70 47 
-54.000000 66.000000 153.600006 79 68 45 
6.022472 -5.932584 -13.806742 88 76 49 
5.978022 -5.802198 -13.503297 89 77 52 
5.841270 -5.587302 -13.003175 88 76 50 
5.833333 -5.500000 -12.800000 89 76 50 
5.795918 -5.387755 -12.538776 91 78 51 
5.847716 -5.360406 -12.475127 91 77 51 
5.898990 -5.333333 -12.412122 90 77 51 
5.979798 -5.333333 -12.412122 88 77 50 
6.060606 -5.333333 -12.412122 73 64 45 
-78.000000 66.000000 153.600006 49 47 35 
-79.000000 66.000000 153.600006 48 48 35 
-80.000000 66.000000 153.600006 49 48 35 
-81.000000 66.000000 153.600006 48 48 35 
-82.000000 66.000000 153.600006 48 48 35 
-83.000000 66.000000 153.600006 49 48 36 
-84.000000 66.000000 153.600006 49 49 35 
-85.000000 66.000000 153.600006 49 49 36 
-86.000000 66.000000 153.600006 49 48 36 
-87.000000 66.000000 153.600006 49 48 36 
-352.000000 264.000000 614.400024 49 49 37 
inf -inf -inf 48 48 36 
1440.000000 -1056.000000 -2457.600098 48 48 34 
728.000000 -528.000000 -1228.800049 48 49 35 
736.000000 -528.000000 -1228.800049 48 49 36 
744.000000 -528.000000 -1228.800049 49 49 36 
752.000000 -528.000000 -1228.800049 48 48 35 
81.000000 67.000000 153.600006 44 46 42 
80.000000 67.000000 153.600006 69 66 61 
79.000000 67.000000 153.600006 81 76 70 
78.000000 67.000000 153.600006 88 83 76 
77.000000 67.000000 153.600006 95 88 81 
76.000000 67.000000 153.600006 100 91 85 
75.000000 67.000000 153.600006 108 98 91 
74.000000 67.000000 153.600006 102 94 88 
73.000000 67.000000 153.600006 94 109 99 
72.000000 67.000000 153.600006 98 115 98 
71.000000 67.000000 153.600006 31 36 28 
70.000000 67.000000 153.600006 14 21 16 
69.000000 67.000000 153.600006 12 20 15 
68.000000 67.000000 153.600006 15 22 17 
67.000000 67.000000 153.600006 12 21 18 
53.000000 67.000000 153.600006 138 105 74 
52.000000 67.000000 153.600006 137 105 74 
51.000000 67.000000 153.600006 137 105 73 
50.000000 67.000000 153.600006 137 105 73 
-181.333328 -357.333344 -819.200012 201 183 166 
-105.599998 -214.399994 -491.520020 164 149 147 
-85.333336 -178.666672 -409.600006 171 160 153 
-82.666664 -178.666672 -409.600006 184 171 159 
-53.333332 -119.111115 -273.066681 194 180 164 
-42.181820 -97.454544 -223.418198 196 181 165 
-40.727272 -97.454544 -223.418198 202 187 167 
-36.000000 -89.333336 -204.800003 205 187 167 
-29.714285 -76.571426 -175.542862 187 172 160 
-26.666666 -71.466667 -163.840012 181 170 157 
-25.600000 -71.466667 -163.840012 203 188 168 
-24.533333 -71.466667 -163.840012 210 193 170 
-22.000000 -67.000000 -153.600006 216 198 174 
-21.000000 -67.000000 -153.600006 213 194 171 
-20.000000 -67.000000 -153.600006 210 192 170 
-20.266666 -71.466667 -163.840012 207 189 168 
-19.200001 -71.466667 -163.840012 206 187 166 
-18.133333 -71.466667 -163.840012 206 187 165 
-21.333334 -89.333336 -204.800003 201 182 162 
-48.000000 -214.399994 -491.520020 192 173 155 
-56.000000 -268.000000 -614.400024 178 159 149 
5.000000 67.000000 153.600006 134 102 70 
4.000000 67.000000 153.600006 133 101 70 
3.000000 67.000000 153.600006 132 100 68 
2.000000 67.000000 153.600006 131 99 66 
-16.000000 67.000000 153.600006 18 27 19 
-17.000000 67.000000 153.600006 26 34 25 
-18.000000 67.000000 153.600006 40 44 33 
-19.000000 67.000000 153.600006 65 61 47 
-20.000000 67.000000 153.600006 47 45 32 
-21.000000 67.000000 153.600006 36 37 24 
-22.000000 67.000000 153.600006 35 36 22 
-23.000000 67.000000 153.600006 35 35 23 
-24.000000 67.000000 153.600006 35 36 23 
-25.000000 67.000000 153.600006 35 36 23 
-26.000000 67.000000 153.600006 34 36 23 
-27.000000 67.000000 153.600006 35 36 23 
-28.000000 67.000000 153.600006 34 36 23 
-29.000000 67.000000 153.600006 34 36 23 
-30.000000 67.000000 153.600006 38 40 25 
-31.000000 67.000000 153.600006 60 58 41 
-32.000000 67.000000 153.600006 80 71 56 
-33.000000 67.000000 153.600006 69 61 47 
-34.000000 67.000000 153.600006 50 47 34 
-35.000000 67.000000 153.600006 38 38 25 
-36.000000 67.000000 153.600006 32 33 22 
-37.000000 67.000000 153.600006 30 32 21 
-38.000000 67.000000 153.600006 30 32 20 
-39.000000 67.000000 153.600006 30 32 20 
-40.000000 67.000000 153.600006 29 31 20 
-41.000000 67.000000 153.600006 28 30 19 
-42.000000 67.000000 153.600006 25 28 18 
-43.000000 67.000000 153.600006 16 20 13 
-44.000000 67.000000 153.600006 7 13 9 
-45.000000 67.000000 153.600006 5 11 9 
-46.000000 67.000000 153.600006 5 11 9 
-47.000000 67.000000 153.600006 5 11 9 
-48.000000 67.000000 153.600006 7 14 10 
-49.000000 67.000000 153.600006 28 36 23 
-50.000000 67.000000 153.600006 65 63 43 
-51.000000 67.000000 153.600006 81 70 48 
-52.000000 67.000000 153.600006 81 70 48 
-53.000000 67.000000 153.600006 81 69 47 
-54.000000 67.000000 153.600006 79 67 45 
6.022472 -6.022472 -13.806742 88 76 50 
5.978022 -5.890110 -13.503297 89 77 52 
5.841270 -5.671957 -13.003175 89 76 50 
5.833333 -5.583333 -12.800000 90 76 51 
5.795918 -5.469388 -12.538776 91 77 51 
5.847716 -5.441624 -12.475127 90 77 50 
5.898990 -5.414141 -12.412122 90 77 50 
5.979798 -5.414141 -12.412122 88 76 50 
6.060606 -5.414141 -12.412122 74 64 44 
-78.000000 67.000000 153.600006 49 48 35 
-79.000000 67.000000 153.600006 49 48 35 
-80.000000 67.000000 153.600006 49 48 35 
-81.000000 67.000000 153.600006 49 48 36 
-82.000000 67.000000 153.600006 49 48 36 
-83.000000 67.000000 153.600006 49 49 35 
-84.000000 67.000000 153.600006 48 48 35 
-85.000000 67.000000 153.600006 48 47 35 
-86.000000 67.000000 153.600006 49 48 36 
-87.000000 67.000000 153.600006 49 48 36 
-352.000000 268.000000 614.400024 48 48 36 
inf -inf -inf 47 47 35 
1440.000000 -1072.000000 -2457.600098 45 47 34 
728.000000 -536.000000 -1228.800049 44 47 34 
736.000000 -536.000000 -1228.800049 45 48 35 
744.000000 -536.000000 -1228.800049 47 48 36 
752.000000 -536.000000 -1228.800049 46 47 35 
81.000000 68.000000 153.600006 47 53 46 
80.000000 68.000000 153.600006 66 69 61 
79.000000 68.000000 153.600006 76 78 70 
78.000000 68.000000 153.600006 85 85 77 
77.000000 68.000000 153.600006 92 91 83 
76.000000 68.000000 153.600006 101 99 90 
75.000000 68.000000 153.600006 111 106 96 
74.000000 68.000000 153.600006 93 90 81 
73.000000 68.000000 153.600006 49 67 56 
72.000000 68.000000 153.600006 39 58 47 
71.000000 68.000000 153.600006 19 27 22 
70.000000 68.000000 153.600006 11 19 15 
69.000000 68.000000 153.600006 16 23 17 
68.000000 68.000000 153.600006 15 23 18 
67.000000 68.000000 153.600006 12 21 18 
53.000000 68.000000 153.600006 137 105 73 
52.000000 68.000000 153.600006 137 105 73 
51.000000 68.000000 153.600006 136 105 72 
50.000000 68.000000 153.600006 136 105 73 
-181.333328 -362.666656 -819.200012 195 177 164 
-105.599998 -217.600006 -491.520020 142 130 137 
-85.333336 -181.333328 -409.600006 158 150 148 
-82.666664 -181.333328 -409.600006 178 167 157 
-48.000000 -108.800003 -245.760010 193 180 163 
-42.181820 -98.909088 -223.418198 195 181 165 
-40.727272 -98.909088 -223.418198 200 185 166 
-36.000000 -90.666664 -204.800003 204 186 166 
-29.714285 -77.714287 -175.542862 185 170 158 
-26.666666 -72.533333 -163.840012 181 169 157 
-25.600000 -72.533333 -163.840012 200 185 165 
-24.533333 -72.533333 -163.840012 210 193 170 
-22.000000 -68.000000 -153.600006 218 199 175 
-21.000000 -68.000000 -153.600006 213 193 171 
-20.000000 -68.000000 -153.600006 208 189 168 
-20.266666 -72.533333 -163.840012 206 188 166 
-19.200001 -72.533333 -163.840012 205 187 166 
-18.133333 -72.533333 -163.840012 185 167 157 
-21.333334 -90.666664 -204.800003 173 158 149 
-48.000000 -217.600006 -491.520020 190 172 154 
-56.000000 -272.000000 -614.400024 178 159 149 
5.000000 68.000000 153.600006 134 102 70 
4.000000 68.000000 153.600006 133 101 69 
3.000000 68.000000 153.600006 131 100 67 
2.000000 68.000000 153.600006 130 99 66 
-16.000000 68.000000 153.600006 19 25 20 
-17.000000 68.000000 153.600006 13 22 15 
-18.000000 68.000000 153.600006 34 40 28 
-19.000000 68.000000 153.600006 65 61 47 
-20.000000 68.000000 153.600006 49 46 33 
-21.000000 68.000000 153.600006 37 37 24 
-22.000000 68.000000 153.600006 35 36 23 
-23.000000 68.000000 153.600006 33 34 23 
-24.000000 68.000000 153.600006 34 35 23 
-25.000000 68.000000 153.600006 34 36 23 
-26.000000 68.000000 153.600006 34 36 24 
-27.000000 68.000000 153.600006 35 36 24 
-28.000000 68.000000 153.600006 35 35 23 
-29.000000 68.000000 153.600006 34 35 23 
-30.000000 68.000000 153.600006 37 38 25 
-31.000000 68.000000 153.600006 61 59 41 
-32.000000 68.000000 153.600006 90 81 64 
-33.000000 68.000000 153.600006 90 78 63 
-34.000000 68.000000 153.600006 73 64 50 
-35.000000 68.000000 153.600006 52 48 35 
-36.000000 68.000000 153.600006 37 37 25 
-37.000000 68.000000 153.600006 31 33 21 
-38.000000 68.000000 153.600006 30 32 20 
-39.000000 68.000000 153.600006 29 31 20 
-40.000000 68.000000 153.600006 29 31 20 
-41.000000 68.000000 153.600006 29 30 19 
-42.000000 68.000000 153.600006 25 28 18 
-43.000000 68.000000 153.600006 16 21 13 
-44.000000 68.000000 153.600006 7 13 10 
-45.000000 68.000000 153.600006 4 11 9 
-46.000000 68.000000 153.600006 5 12 9 
-47.000000 68.000000 153.600006 5 11 9 
-48.000000 68.000000 153.600006 7 15 10 
-49.000000 68.000000 153.600006 30 37 25 
-50.000000 68.000000 153.600006 64 61 42 
-51.000000 68.000000 153.600006 80 70 48 
-52.000000 68.000000 153.600006 81 70 47 
-53.000000 68.000000 153.600006 81 68 46 
-54.000000 68.000000 153.600006 80 67 45 
6.022472 -6.112360 -13.806742 88 76 51 
5.978022 -5.978022 -13.503297 90 78 53 
5.841270 -5.756614 -13.003175 89 76 50 
5.833333 -5.666667 -12.800000 90 76 51 
5.795918 -5.551021 -12.538776 92 78 51 
5.847716 -5.522842 -12.475127 91 77 50 
5.898990 -5.494949 -12.412122 89 76 51 
5.979798 -5.494949 -12.412122 89 76 50 
6.060606 -5.494949 -12.412122 74 64 44 
-78.000000 68.000000 153.600006 49 49 35 
-79.000000 68.000000 153.600006 49 49 36 
-80.000000 68.000000 153.600006 49 48 36 
-81.000000 68.000000 153.600006 49 48 36 
-82.000000 68.000000 153.600006 49 49 36 
-83.000000 68.000000 153.600006 49 49 36 
-84.000000 68.000000 153.600006 49 48 35 
-85.000000 68.000000 153.600006 48 48 35 
-86.000000 68.000000 153.600006 49 49 36 
-87.000000 68.000000 153.600006 49 49 37 
-352.000000 272.000000 614.400024 49 49 36 
inf -inf -inf 48 48 36 
1440.000000 -1088.000000 -2457.600098 44 47 35 
728.000000 -544.000000 -1228.800049 42 46 35 
736.000000 -544.000000 -1228.800049 42 46 34 
744.000000 -544.000000 -1228.800049 42 46 35 
752.000000 -544.000000 -1228.800049 42 46 35 
81.000000 69.000000 153.600006 25 34 27 
80.000000 69.000000 153.600006 29 38 31 
79.000000 69.000000 153.600006 30 41 33 
78.000000 69.000000 153.600006 32 42 35 
77.000000 69.000000 153.600006 33 44 37 
76.000000 69.000000 153.600006 40 51 43 
75.000000 69.000000 153.600006 51 60 52 
74.000000 69.000000 153.600006 55 58 52 
73.000000 69.000000 153.600006 44 49 44 
72.000000 69.000000 153.600006 39 45 41 
71.000000 69.000000 153.600006 20 27 23 
70.000000 69.000000 153.600006 15 23 18 
69.000000 69.000000 153.600006 19 26 19 
68.000000 69.000000 153.600006 14 22 17 
67.000000 69.000000 153.600006 12 21 17 
53.000000 69.000000 153.600006 137 105 74 
52.000000 69.000000 153.600006 137 105 73 
51.000000 69.000000 153.600006 137 105 73 
50.000000 69.000000 153.600006 137 106 74 
-181.333328 -368.000000 -819.200012 192 173 161 
-105.599998 -220.800003 -491.520020 136 124 134 
-85.333336 -184.000000 -409.600006 157 149 147 
-82.666664 -184.000000 -409.600006 178 166 156 
-48.000000 -110.400002 -245.760010 194 181 165 
-42.181820 -100.363640 -223.418198 198 184 166 
-40.727272 -100.363640 -223.418198 199 184 165 
-36.000000 -92.000000 -204.800003 198 181 164 
-29.714285 -78.857140 -175.542862 188 174 160 
-26.666666 -73.599998 -163.840012 185 174 159 
-25.600000 -73.599998 -163.840012 200 184 163 
-24.533333 -73.599998 -163.840012 212 195 171 
-22.000000 -69.000000 -153.600006 218 199 175 
-21.000000 -69.000000 -153.600006 207 188 168 
-20.000000 -69.000000 -153.600006 188 171 157 
-20.266666 -73.599998 -163.840012 190 174 160 
-19.200001 -73.599998 -163.840012 185 169 157 
-18.133333 -73.599998 -163.840012 164 150 149 
-21.333334 -92.000000 -204.800003 153 143 140 
-48.000000 -220.800003 -491.520020 188 171 153 
-56.000000 -276.000000 -614.400024 179 161 149 
5.000000 69.000000 153.600006 133 101 68 
4.000000 69.000000 153.600006 132 101 68 
3.000000 69.000000 153.600006 131 100 66 
2.000000 69.000000 153.600006 130 98 66 
-16.000000 69.000000 153.600006 13 20 16 
-17.000000 69.000000 153.600006 8 16 12 
-18.000000 69.000000 153.600006 29 36 25 
-19.000000 69.000000 153.600006 65 61 47 
-20.000000 69.000000 153.600006 49 46 33 
-21.000000 69.000000 153.600006 36 37 24 
-22.000000 69.000000 153.600006 35 36 24 
-23.000000 69.000000 153.600006 34 35 23 
-24.000000 69.000000 153.600006 34 35 23 
-25.000000 69.000000 153.600006 34 36 23 
-26.000000 69.000000 153.600006 34 36 23 
-27.000000 69.000000 153.600006 34 36 24 
-28.000000 69.000000 153.600006 34 35 24 
-29.000000 69.000000 153.600006 34 35 23 
-30.000000 69.000000 153.600006 36 39 24 
-31.000000 69.000000 153.600006 60 59 42 
-32.000000 69.000000 153.600006 91 82 65 
-33.000000 69.000000 153.600006 98 87 69 
-34.000000 69.000000 153.600006 92 80 64 
-35.000000 69.000000 153.600006 74 65 51 
-36.000000 69.000000 153.600006 51 47 34 
-37.000000 69.000000 153.600006 37 37 24 
-38.000000 69.000000 153.600006 31 33 21 
-39.000000 69.000000 153.600006 29 31 20 
-40.000000 69.000000 153.600006 29 31 20 
-41.000000 69.000000 153.600006 29 31 19 
-42.000000 69.000000 153.600006 26 29 18 
-43.000000 69.000000 153.600006 16 20 13 
-44.000000 69.000000 153.600006 7 13 10 
-45.000000 69.000000 153.600006 4 11 9 
-46.000000 69.000000 153.600006 4 12 9 
-47.000000 69.000000 153.600006 5 11 9 
-48.000000 69.000000 153.600006 8 16 11 
-49.000000 69.000000 153.600006 32 39 27 
-50.000000 69.000000 153.600006 65 62 43 
-51.000000 69.000000 153.600006 81 70 48 
-52.000000 69.000000 153.600006 81 70 47 
-53.000000 69.000000 153.600006 81 69 46 
-54.000000 69.000000 153.600006 80 68 45 
6.022472 -6.202247 -13.806742 88 76 51 
5.978022 -6.065934 -13.503297 89 77 53 
5.841270 -5.841270 -13.003175 89 76 51 
5.833333 -5.750000 -12.800000 90 77 51 
5.795918 -5.632653 -12.538776 92 78 51 
5.847716 -5.604061 -12.475127 90 77 50 
5.898990 -5.575758 -12.412122 89 76 50 
5.979798 -5.575758 -12.412122 87 75 49 
6.060606 -5.575758 -12.412122 74 64 44 
-78.000000 69.000000 153.600006 49 49 36 
-79.000000 69.000000 153.600006 49 48 36 
-80.000000 69.000000 153.600006 48 48 35 
-81.000000 69.000000 153.600006 49 49 35 
-82.000000 69.000000 153.600006 49 49 36 
-83.000000 69.000000 153.600006 49 49 36 
-84.000000 69.000000 153.600006 49 49 35 
-85.000000 69.000000 153.600006 49 50 36 
-86.000000 69.000000 153.600006 53 53 39 
-87.000000 69.000000 153.600006 56 55 41 
-352.000000 276.000000 614.400024 56 55 42 
inf -inf -inf 56 55 42 
1440.000000 -1104.000000 -2457.600098 55 54 41 
728.000000 -552.000000 -1228.800049 54 54 41 
736.000000 -552.000000 -1228.800049 52 53 40 
744.000000 -552.000000 -1228.800049 50 52 40 
752.000000 -552.000000 -1228.800049 48 50 39 
81.000000 70.000000 153.600006 37 41 35 
80.000000 70.000000 153.600006 38 42 36 
79.000000 70.000000 153.600006 35 40 34 
78.000000 70.000000 153.600006 32 38 32 
77.000000 70.000000 153.600006 30 36 31 
76.000000 70.000000 153.600006 35 42 35 
75.000000 70.000000 153.600006 44 51 44 
74.000000 70.000000 153.600006 49 54 47 
73.000000 70.000000 153.600006 47 52 46 
72.000000 70.000000 153.600006 46 50 46 
71.000000 70.000000 153.600006 24 30 27 
70.000000 70.000000 153.600006 24 31 26 
69.000000 70.000000 153.600006 19 25 21 
68.000000 70.000000 153.600006 12 21 18 
67.000000 70.000000 153.600006 11 20 17 
53.000000 70.000000 153.600006 138 106 74 
52.000000 70.000000 153.600006 137 105 74 
51.000000 70.000000 153.600006 137 105 73 
50.000000 70.000000 153.600006 138 106 74 
-181.333328 -373.333344 -819.200012 192 174 160 
-105.599998 -224.000000 -491.520020 139 128 134 
-85.333336 -186.666672 -409.600006 163 155 150 
-82.666664 -186.666672 -409.600006 180 169 157 
-48.000000 -112.000000 -245.760010 196 184 166 
-42.181820 -101.818184 -223.418198 194 179 163 
-40.727272 -101.818184 -223.418198 194 179 162 
-36.000000 -93.333336 -204.800003 188 174 160 
-29.714285 -80.000000 -175.542862 186 173 160 
-26.666666 -74.666664 -163.840012 184 172 158 
-25.600000 -74.666664 -163.840012 199 183 162 
-24.533333 -74.666664 -163.840012 212 196 172 
-22.000000 -70.000000 -153.600006 216 197 173 
-21.000000 -70.000000 -153.600006 200 180 165 
-20.000000 -70.000000 -153.600006 159 145 143 
-20.266666 -74.666664 -163.840012 167 155 152 
-19.200001 -74.666664 -163.840012 152 141 143 
-18.133333 -74.666664 -163.840012 160 147 149 
-21.333334 -93.333336 -204.800003 150 140 138 
-48.000000 -224.000000 -491.520020 187 171 153 
-56.000000 -280.000000 -614.400024 179 159 148 
5.000000 70.000000 153.600006 133 101 68 
4.000000 70.000000 153.600006 133 101 68 
3.000000 70.000000 153.600006 132 100 68 
2.000000 70.000000 153.600006 132 99 67 
-16.000000 70.000000 153.600006 9 16 12 
-17.000000 70.000000 153.600006 8 15 11 
-18.000000 70.000000 153.600006 29 35 24 
-19.000000 70.000000 153.600006 66 62 47 
-20.000000 70.000000 153.600006 49 46 33 
-21.000000 70.000000 153.600006 36 37 25 
-22.000000 70.000000 153.600006 35 36 24 
-23.000000 70.000000 153.600006 35 35 23 
-24.000000 70.000000 153.600006 34 35 23 
-25.000000 70.000000 153.600006 34 35 23 
-26.000000 70.000000 153.600006 33 35 23 
-27.000000 70.000000 153.600006 34 35 23 
-28.000000 70.000000 153.600006 33 36 23 
-29.000000 70.000000 153.600006 34 36 23 
-30.000000 70.000000 153.600006 36 38 25 
-31.000000 70.000000 153.600006 60 59 43 
-32.000000 70.000000 153.600006 91 83 66 
-33.000000 70.000000 153.600006 99 89 70 
-34.000000 70.000000 153.600006 96 86 68 
-35.000000 70.000000 153.600006 90 78 63 
-36.000000 70.000000 153.600006 71 62 48 
-37.000000 70.000000 153.600006 50 46 33 
-38.000000 70.000000 153.600006 37 37 24 
-39.000000 70.000000 153.600006 31 33 20 
-40.000000 70.000000 153.600006 30 32 20 
-41.000000 70.000000 153.600006 30 31 19 
-42.000000 70.000000 153.600006 27 29 18 
-43.000000 70.000000 153.600006 16 20 13 
-44.000000 70.000000 153.600006 7 13 9 
-45.000000 70.000000 153.600006 5 11 8 
-46.000000 70.000000 153.600006 5 12 9 
-47.000000 70.000000 153.600006 5 12 9 
-48.000000 70.000000 153.600006 8 16 11 
-49.000000 70.000000 153.600006 34 41 28 
-50.000000 70.000000 153.600006 67 64 45 
-51.000000 70.000000 153.600006 81 71 48 
-52.000000 70.000000 153.600006 81 69 46 
-53.000000 70.000000 153.600006 81 68 46 
-54.000000 70.000000 153.600006 80 68 46 
6.022472 -6.292135 -13.806742 87 76 51 
5.978022 -6.153846 -13.503297 89 77 52 
5.841270 -5.925926 -13.003175 89 77 51 
5.833333 -5.833333 -12.800000 90 77 51 
5.795918 -5.714286 -12.538776 92 78 51 
5.847716 -5.685279 -12.475127 91 77 51 
5.898990 -5.656566 -12.412122 89 77 50 
5.979798 -5.656566 -12.412122 88 76 50 
6.060606 -5.656566 -12.412122 74 65 44 
-78.000000 70.000000 153.600006 49 48 35 
-79.000000 70.000000 153.600006 49 48 35 
-80.000000 70.000000 153.600006 49 48 35 
-81.000000 70.000000 153.600006 48 48 34 
-82.000000 70.000000 153.600006 48 48 35 
-83.000000 70.000000 153.600006 48 48 35 
-84.000000 70.000000 153.600006 49 49 35 
-85.000000 70.000000 153.600006 53 53 39 
-86.000000 70.000000 153.600006 67 64 51 
-87.000000 70.000000 153.600006 75 70 57 
-352.000000 280.000000 614.400024 76 71 59 
inf -inf -inf 76 71 58 
1440.000000 -1120.000000 -2457.600098 75 70 58 
728.000000 -560.000000 -1228.800049 74 70 57 
736.000000 -560.000000 -1228.800049 73 69 57 
744.000000 -560.000000 -1228.800049 71 67 56 
752.000000 -560.000000 -1228.800049 69 65 54 
81.000000 71.000000 153.600006 56 56 50 
80.000000 71.000000 153.600006 65 62 56 
79.000000 71.000000 153.600006 64 61 55 
78.000000 71.000000 153.600006 62 59 54 
77.000000 71.000000 153.600006 64 61 56 
76.000000 71.000000 153.600006 85 76 71 
75.000000 71.000000 153.600006 96 84 77 
74.000000 71.000000 153.600006 81 73 66 
73.000000 71.000000 153.600006 40 44 37 
72.000000 71.000000 153.600006 34 39 34 
71.000000 71.000000 153.600006 20 27 23 
70.000000 71.000000 153.600006 19 26 23 
69.000000 71.000000 153.600006 13 20 17 
68.000000 71.000000 153.600006 10 18 15 
67.000000 71.000000 153.600006 9 17 13 
53.000000 71.000000 153.600006 121 93 65 
52.000000 71.000000 153.600006 120 92 64 
51.000000 71.000000 153.600006 119 91 64 
50.000000 71.000000 153.600006 120 93 64 
-181.333328 -378.666656 -819.200012 167 151 140 
-105.599998 -227.199997 -491.520020 123 112 118 
-85.333336 -189.333328 -409.600006 146 138 133 
-82.666664 -189.333328 -409.600006 157 146 137 
-48.000000 -113.599998 -245.760010 170 159 144 
-42.181820 -103.272728 -223.418198 164 152 140 
-40.727272 -103.272728 -223.418198 167 155 141 
-36.000000 -94.666664 -204.800003 166 154 140 
-29.714285 -81.142860 -175.542862 165 153 141 
-26.666666 -75.733330 -163.840012 160 150 138 
-25.600000 -75.733330 -163.840012 174 160 143 
-24.533333 -75.733330 -163.840012 186 172 151 
-22.000000 -71.000000 -153.600006 187 171 151 
-21.000000 -71.000000 -153.600006 170 153 143 
-20.000000 -71.000000 -153.600006 129 119 121 
-20.266666 -75.733330 -163.840012 144 134 133 
-19.200001 -75.733330 -163.840012 130 122 123 
-18.133333 -75.733330 -163.840012 140 129 130 
-21.333334 -94.666664 -204.800003 123 116 116 
-48.000000 -227.199997 -491.520020 163 149 134 
-56.000000 -284.000000 -614.400024 155 139 130 
5.000000 71.000000 153.600006 117 89 60 
4.000000 71.000000 153.600006 116 88 59 
3.000000 71.000000 153.600006 116 88 59 
2.000000 71.000000 153.600006 115 88 59 
-16.000000 71.000000 153.600006 8 15 11 
-17.000000 71.000000 153.600006 6 13 9 
-18.000000 71.000000 153.600006 25 31 22 
-19.000000 71.000000 153.600006 58 55 42 
-20.000000 71.000000 153.600006 43 41 30 
-21.000000 71.000000 153.600006 32 32 22 
-22.000000 71.000000 153.600006 31 31 21 
-23.000000 71.000000 153.600006 29 30 20 
-24.000000 71.000000 153.600006 29 30 20 
-25.000000 71.000000 153.600006 29 30 20 
-26.000000 71.000000 153.600006 28 30 20 
-27.000000 71.000000 153.600006 28 30 20 
-28.000000 71.000000 153.600006 28 30 19 
-29.000000 71.000000 153.600006 29 30 20 
-30.000000 71.000000 153.600006 31 33 21 
-31.000000 71.000000 153.600006 54 52 38 
-32.000000 71.000000 153.600006 81 74 59 
-33.000000 71.000000 153.600006 86 77 62 
-34.000000 71.000000 153.600006 83 75 60 
-35.000000 71.000000 153.600006 81 72 58 
-36.000000 71.000000 153.600006 74 65 51 
-37.000000 71.000000 153.600006 58 52 41 
-38.000000 71.000000 153.600006 41 39 28 
-39.000000 71.000000 153.600006 30 31 20 
-40.000000 71.000000 153.600006 27 28 17 
-41.000000 71.000000 153.600006 25 27 17 
-42.000000 71.000000 153.600006 22 24 16 
-43.000000 71.000000 153.600006 14 17 11 
-44.000000 71.000000 153.600006 6 11 8 
-45.000000 71.000000 153.600006 4 10 7 
-46.000000 71.000000 153.600006 4 10 7 
-47.000000 71.000000 153.600006 4 10 8 
-48.000000 71.000000 153.600006 8 15 10 
-49.000000 71.000000 153.600006 32 37 26 
-50.000000 71.000000 153.600006 60 57 40 
-51.000000 71.000000 153.600006 71 62 43 
-52.000000 71.000000 153.600006 72 61 42 
-53.000000 71.000000 153.600006 71 60 40 
-54.000000 71.000000 153.600006 69 58 39 
6.022472 -6.382022 -13.806742 76 66 44 
5.978022 -6.241758 -13.503297 77 67 46 
5.841270 -6.010582 -13.003175 77 66 45 
5.833333 -5.916667 -12.800000 78 67 44 
5.795918 -5.795918 -12.538776 80 68 45 
5.847716 -5.766498 -12.475127 80 67 45 
5.898990 -5.737374 -12.412122 79 67 45 
5.979798 -5.737374 -12.412122 77 66 44 
6.060606 -5.737374 -12.412122 64 55 38 
-78.000000 71.000000 153.600006 41 41 30 
-79.000000 71.000000 153.600006 42 42 30 
-80.000000 71.000000 153.600006 42 42 30 
-81.000000 71.000000 153.600006 42 41 30 
-82.000000 71.000000 153.600006 42 41 30 
-83.000000 71.000000 153.600006 42 41 30 
-84.000000 71.000000 153.600006 42 42 31 
-85.000000 71.000000 153.600006 50 49 37 
