ply
            format ascii 1.0
            element vertex 11347
            property float x
            property float y
            property float z
            property uchar red
            property uchar green
            property uchar blue
            end_header
10.476191 -11.466666 -39.070477 139 97 59 
10.452830 -11.358491 -38.701885 135 94 56 
10.528302 -11.358491 -38.701885 137 96 57 
10.603773 -11.358491 -38.701885 136 95 57 
10.679245 -11.358491 -38.701885 133 92 54 
10.857142 -11.466666 -39.070477 134 93 55 
10.985646 -11.521531 -39.257416 132 91 51 
11.009523 -11.466666 -39.070477 130 88 48 
13.708333 -12.541667 -42.733334 133 101 54 
13.720207 -12.476684 -42.511917 128 96 49 
44.086956 -26.173914 -89.182610 111 126 81 
44.260868 -26.173914 -89.182610 118 130 82 
44.434784 -26.173914 -89.182610 132 139 91 
45.599998 -26.755556 -91.164444 141 144 96 
-152.250000 -75.750000 -256.399994 239 250 230 
-142.823532 -71.294121 -241.317642 241 248 231 
-142.352936 -71.294121 -241.317642 232 238 220 
-138.750000 -75.750000 -256.399994 236 239 208 
-134.060608 -73.454544 -248.630295 238 244 213 
-129.647064 -71.294121 -241.317642 234 242 212 
-129.176468 -71.294121 -241.317642 230 242 211 
-128.705887 -71.294121 -241.317642 219 233 203 
-124.571426 -69.257141 -234.422852 218 232 205 
-124.114288 -69.257141 -234.422852 221 236 210 
-120.222221 -67.333336 -227.911102 221 238 212 
-119.777779 -67.333336 -227.911102 225 242 217 
-116.108109 -65.513512 -221.751343 231 245 222 
-115.675674 -65.513512 -221.751343 227 237 217 
213.500000 151.500000 512.799988 196 215 186 
212.500000 151.500000 512.799988 195 212 184 
211.500000 151.500000 512.799988 204 217 192 
11.816092 -13.931034 -47.154022 146 103 67 
11.840000 -13.851429 -46.884571 147 104 69 
11.931429 -13.851429 -46.884571 147 104 68 
10.423077 -11.653846 -39.446152 136 93 56 
10.449760 -11.598086 -39.257416 136 92 55 
10.426540 -11.488152 -38.885307 138 94 57 
10.452830 -11.433962 -38.701885 139 96 59 
10.528302 -11.433962 -38.701885 142 98 61 
10.603773 -11.433962 -38.701885 136 93 56 
10.679245 -11.433962 -38.701885 133 90 53 
10.909091 -11.598086 -39.257416 136 93 55 
11.038462 -11.653846 -39.446152 135 90 52 
13.625000 -12.625000 -42.733334 127 94 46 
13.708333 -12.625000 -42.733334 128 95 47 
13.649485 -12.494845 -42.292782 128 96 48 
13.731958 -12.494845 -42.292782 134 102 54 
18.471910 -13.617977 -46.094379 166 140 91 
18.355556 -13.466666 -45.582222 169 148 98 
-139.199997 -69.714287 -234.422852 231 247 226 
-127.789474 -64.210526 -215.915787 239 249 232 
-127.368423 -64.210526 -215.915787 239 247 230 
-141.882355 -71.764709 -241.317642 236 244 224 
-48.916668 -25.416666 -85.466667 216 229 207 
-47.755100 -24.897959 -83.722450 236 243 222 
-46.639999 -24.400000 -82.047997 244 243 222 
-43.439251 -22.803738 -76.680374 247 242 219 
-138.750000 -76.250000 -256.399994 214 223 192 
-138.250000 -76.250000 -256.399994 224 233 203 
-133.575760 -73.939392 -248.630295 232 242 213 
-133.090912 -73.939392 -248.630295 234 244 216 
-128.705887 -71.764709 -241.317642 225 234 208 
-128.235291 -71.764709 -241.317642 221 227 204 
-124.114288 -69.714287 -234.422852 234 241 217 
-123.657143 -69.714287 -234.422852 236 245 221 
-119.777779 -67.777779 -227.911102 235 246 224 
-119.333336 -67.777779 -227.911102 226 238 217 
213.500000 152.500000 512.799988 209 226 196 
212.500000 152.500000 512.799988 212 228 200 
211.500000 152.500000 512.799988 221 233 209 
11.748571 -13.942857 -46.884571 147 106 70 
11.772727 -13.863636 -46.618179 148 107 71 
11.796610 -13.785311 -46.354801 147 104 69 
11.887006 -13.785311 -46.354801 144 101 66 
10.423077 -11.730769 -39.446152 132 89 52 
10.449760 -11.674642 -39.257416 130 86 49 
10.476191 -11.619047 -39.070477 132 88 51 
10.502370 -11.563981 -38.885307 132 88 51 
10.528302 -11.509434 -38.701885 131 87 50 
10.603773 -11.509434 -38.701885 130 86 49 
10.679245 -11.509434 -38.701885 129 85 48 
10.961538 -11.730769 -39.446152 130 85 48 
13.684211 -12.842105 -43.183155 133 102 52 
13.625000 -12.708333 -42.733334 131 99 50 
13.708333 -12.708333 -42.733334 130 98 49 
13.579487 -12.512820 -42.075897 130 98 49 
13.661538 -12.512820 -42.075897 134 102 53 
13.267326 -12.079208 -40.617821 139 106 59 
18.382023 -13.707865 -46.094379 158 131 82 
18.266666 -13.555555 -45.582222 165 142 93 
18.254143 -13.480663 -45.330387 168 148 98 
18.342541 -13.480663 -45.330387 169 151 100 
-128.210526 -64.631577 -215.915787 201 220 198 
-124.512817 -62.974358 -210.379486 220 232 215 
-124.102562 -62.974358 -210.379486 225 237 219 
-123.692307 -62.974358 -210.379486 220 233 211 
-49.250000 -25.583334 -85.466667 206 218 192 
-49.083332 -25.583334 -85.466667 228 235 214 
-47.918365 -25.061224 -83.722450 239 243 225 
-47.272728 -24.808081 -82.876762 241 244 226 
-45.281555 -23.844660 -79.658249 242 247 226 
-43.439251 -22.953272 -76.680374 237 247 219 
-43.289719 -22.953272 -76.680374 231 243 210 
-138.750000 -76.750000 -256.399994 199 212 182 
-138.250000 -76.750000 -256.399994 202 215 186 
-133.575760 -74.424240 -248.630295 218 229 202 
-133.090912 -74.424240 -248.630295 231 240 215 
-132.606064 -74.424240 -248.630295 233 239 216 
-128.235291 -72.235291 -241.317642 228 229 206 
-124.114288 -70.171425 -234.422852 229 229 207 
-123.657143 -70.171425 -234.422852 233 238 216 
-119.777779 -68.222221 -227.911102 231 239 218 
-119.333336 -68.222221 -227.911102 212 222 203 
212.500000 153.500000 512.799988 225 240 212 
11.681818 -13.954545 -46.618179 141 101 64 
11.706215 -13.875707 -46.354801 141 100 64 
11.664804 -13.720671 -45.836872 145 103 67 
11.624310 -13.569060 -45.330387 146 103 67 
11.648352 -13.494506 -45.081318 144 101 66 
10.600986 -12.098522 -40.417732 133 90 54 
10.423077 -11.807693 -39.446152 131 88 52 
10.500000 -11.807693 -39.446152 129 85 49 
10.476191 -11.695238 -39.070477 134 90 54 
10.502370 -11.639811 -38.885307 136 92 55 
10.528302 -11.584906 -38.701885 133 89 52 
10.603773 -11.584906 -38.701885 130 86 49 
10.679245 -11.584906 -38.701885 128 83 46 
10.857142 -11.695238 -39.070477 126 81 43 
13.659575 -13.063829 -43.642551 135 104 56 
13.600000 -12.926316 -43.183155 140 109 61 
13.612565 -12.858639 -42.957066 139 108 59 
13.625000 -12.791667 -42.733334 140 108 60 
13.708333 -12.791667 -42.733334 138 106 58 
13.579487 -12.594872 -42.075897 137 105 57 
13.188119 -12.158416 -40.617821 139 106 58 
13.201970 -12.098522 -40.417732 138 103 57 
12.899522 -11.751196 -39.257416 138 103 58 
18.382023 -13.797752 -46.094379 168 141 92 
18.266666 -13.644444 -45.582222 166 143 93 
18.254143 -13.569060 -45.330387 161 141 90 
18.342541 -13.569060 -45.330387 159 138 86 
-124.923080 -63.384617 -210.379486 194 217 193 
-115.619049 -58.857143 -195.352371 195 215 193 
-110.000000 -56.181820 -186.472717 192 213 190 
-107.199997 -54.933334 -182.328888 192 216 189 
-117.268295 -60.292683 -200.117065 196 220 191 
-51.010754 -26.580645 -88.223656 212 227 198 
-49.250000 -25.750000 -85.466667 232 241 217 
-49.083332 -25.750000 -85.466667 241 245 223 
-47.918365 -25.224489 -83.722450 243 243 224 
-47.272728 -24.969696 -82.876762 242 243 224 
-46.639999 -24.719999 -82.047997 237 244 222 
-45.126213 -24.000000 -79.658249 226 242 216 
-138.750000 -77.250000 -256.399994 200 217 187 
-138.250000 -77.250000 -256.399994 194 212 182 
-133.575760 -74.909088 -248.630295 203 219 191 
-133.090912 -74.909088 -248.630295 224 236 211 
-132.606064 -74.909088 -248.630295 235 244 219 
-128.235291 -72.705879 -241.317642 234 239 211 
-124.114288 -70.628571 -234.422852 225 229 202 
-123.657143 -70.628571 -234.422852 221 228 205 
-119.777779 -68.666664 -227.911102 209 219 200 
253.500000 154.500000 512.799988 202 224 196 
252.500000 154.500000 512.799988 202 226 204 
251.500000 154.500000 512.799988 186 208 187 
250.500000 154.500000 512.799988 186 204 182 
11.615819 -13.966102 -46.354801 145 103 64 
11.575419 -13.810056 -45.836872 142 99 61 
11.535912 -13.657458 -45.330387 145 101 63 
11.434783 -13.434783 -44.591305 142 98 60 
11.276596 -13.148936 -43.642551 139 96 58 
10.953846 -12.676923 -42.075897 136 92 55 
10.396135 -11.942029 -39.636715 133 89 52 
10.423077 -11.884615 -39.446152 131 90 54 
10.400000 -11.771428 -39.070477 130 90 55 
10.476191 -11.771428 -39.070477 134 93 57 
10.502370 -11.715640 -38.885307 141 98 62 
10.528302 -11.660378 -38.701885 137 92 56 
10.603773 -11.660378 -38.701885 133 86 49 
10.679245 -11.660378 -38.701885 130 82 44 
10.754717 -11.660378 -38.701885 129 79 41 
10.933333 -11.771428 -39.070477 128 79 41 
13.574468 -13.148936 -43.642551 136 104 61 
13.515789 -13.010527 -43.183155 133 99 57 
13.600000 -13.010527 -43.183155 134 100 58 
13.612565 -12.942409 -42.957066 139 106 64 
13.625000 -12.875000 -42.733334 139 106 64 
13.567010 -12.742268 -42.292782 132 100 58 
13.510204 -12.612245 -41.861225 135 103 61 
13.188119 -12.237624 -40.617821 136 104 61 
12.822967 -11.827751 -39.257416 129 97 52 
12.035714 -11.035714 -36.628571 135 103 57 
12.107142 -11.035714 -36.628571 138 107 60 
18.382023 -13.887640 -46.094379 161 130 81 
18.266666 -13.733334 -45.582222 161 133 82 
18.254143 -13.657458 -45.330387 153 128 77 
18.342541 -13.657458 -45.330387 149 123 72 
-116.000000 -59.238094 -195.352371 206 230 205 
-107.911110 -55.288887 -182.328888 211 234 209 
-105.217392 -54.086956 -178.365219 208 234 207 
-100.500000 -51.833332 -170.933334 209 237 208 
-106.844444 -55.288887 -182.328888 211 238 208 
-56.000000 -29.270588 -96.527054 210 224 197 
-51.565216 -27.043478 -89.182610 233 245 219 
-49.768421 -26.189474 -86.366310 238 247 223 
-49.599998 -26.189474 -86.366310 243 246 224 
-48.916668 -25.916666 -85.466667 244 242 223 
-48.247421 -25.649485 -84.585564 235 234 215 
-48.082474 -25.649485 -84.585564 221 228 207 
-20.250000 -11.107142 -36.628571 191 217 184 
-20.178572 -11.107142 -36.628571 182 214 184 
-20.107143 -11.107142 -36.628571 181 216 187 
-138.250000 -77.750000 -256.399994 188 213 181 
-133.575760 -75.393936 -248.630295 195 217 187 
-133.090912 -75.393936 -248.630295 214 231 204 
-128.705887 -73.176468 -241.317642 224 238 211 
-128.235291 -73.176468 -241.317642 229 237 206 
-124.114288 -71.085716 -234.422852 228 236 204 
-120.222221 -69.111115 -227.911102 220 229 204 
-123.199997 -71.085716 -234.422852 200 211 192 
254.500000 155.500000 512.799988 196 203 169 
253.500000 155.500000 512.799988 189 204 173 
252.500000 155.500000 512.799988 199 219 191 
251.500000 155.500000 512.799988 196 218 191 
250.500000 155.500000 512.799988 188 207 183 
11.575419 -13.899442 -45.836872 143 99 60 
11.535912 -13.745856 -45.330387 145 101 62 
11.434783 -13.521739 -44.591305 141 97 58 
11.041667 -12.958333 -42.733334 138 94 55 
10.318841 -12.019323 -39.636715 135 91 52 
10.247619 -11.847619 -39.070477 138 95 56 
10.226415 -11.735849 -38.701885 138 100 63 
10.301887 -11.735849 -38.701885 137 101 65 
10.328638 -11.680751 -38.520187 136 98 62 
10.403756 -11.680751 -38.520187 137 96 59 
10.478873 -11.680751 -38.520187 134 90 52 
10.553990 -11.680751 -38.520187 134 87 49 
10.629108 -11.680751 -38.520187 135 85 46 
10.654205 -11.626168 -38.340187 132 81 42 
10.830189 -11.735849 -38.701885 130 82 43 
13.857924 -13.595629 -44.834972 132 101 60 
13.574468 -13.234042 -43.642551 131 96 57 
13.515789 -13.094737 -43.183155 125 87 50 
13.528796 -13.026178 -42.957066 125 87 50 
13.612565 -13.026178 -42.957066 125 88 51 
13.625000 -12.958333 -42.733334 125 90 52 
13.567010 -12.824742 -42.292782 123 89 51 
13.510204 -12.693877 -41.861225 123 89 51 
13.188119 -12.316832 -40.617821 127 94 55 
12.884615 -11.961538 -39.446152 125 93 50 
12.657277 -11.680751 -38.520187 136 103 59 
12.732394 -11.680751 -38.520187 139 107 63 
18.266666 -13.822222 -45.582222 149 116 65 
18.254143 -13.745856 -45.330387 144 114 63 
-110.727272 -56.909092 -186.472717 209 230 207 
-107.911110 -55.644444 -182.328888 213 235 210 
-105.217392 -54.434784 -178.365219 210 234 208 
-104.869568 -54.434784 -178.365219 209 235 206 
-56.000000 -29.458824 -96.527054 213 228 200 
-51.010754 -26.924730 -88.223656 236 246 221 
-49.768421 -26.357895 -86.366310 240 245 223 
-49.599998 -26.357895 -86.366310 244 245 225 
-48.412373 -25.814432 -84.585564 243 241 221 
-48.247421 -25.814432 -84.585564 230 230 210 
-48.082474 -25.814432 -84.585564 214 222 199 
-20.321428 -11.178572 -36.628571 204 221 189 
-20.250000 -11.178572 -36.628571 191 214 182 
-20.178572 -11.178572 -36.628571 185 212 181 
-20.107143 -11.178572 -36.628571 186 216 185 
-20.874418 -11.646512 -38.161861 198 227 191 
-137.750000 -78.250000 -256.399994 196 221 189 
-133.090912 -75.878784 -248.630295 208 228 199 
-128.705887 -73.647057 -241.317642 212 227 199 
-121.111115 -69.555557 -227.911102 216 226 193 
-117.405403 -67.675674 -221.751343 215 224 192 
-116.972977 -67.675674 -221.751343 205 215 188 
-119.777779 -69.555557 -227.911102 193 204 184 
254.500000 156.500000 512.799988 215 216 179 
253.500000 156.500000 512.799988 191 196 157 
252.500000 156.500000 512.799988 184 193 156 
251.500000 156.500000 512.799988 191 206 174 
-29.937500 -19.562500 -64.099998 178 201 172 
-29.812500 -19.562500 -64.099998 213 230 204 
11.600000 -13.911111 -45.582222 141 98 57 
11.624310 -13.834254 -45.330387 138 95 54 
10.871795 -12.841025 -42.075897 138 95 54 
10.171429 -11.923809 -39.070477 135 91 50 
10.103287 -11.755869 -38.520187 142 100 59 
10.083721 -11.646512 -38.161861 148 111 72 
10.158139 -11.646512 -38.161861 150 115 77 
10.280374 -11.700934 -38.340187 141 105 66 
10.355140 -11.700934 -38.340187 138 100 61 
10.429907 -11.700934 -38.340187 141 100 60 
10.504673 -11.700934 -38.340187 143 99 60 
10.579439 -11.700934 -38.340187 142 96 56 
10.604651 -11.646512 -38.161861 134 87 46 
10.728972 -11.700934 -38.340187 128 82 42 
13.857924 -13.683060 -44.834972 143 106 67 
13.574468 -13.319149 -43.642551 132 91 54 
13.515789 -13.178947 -43.183155 123 80 44 
13.528796 -13.109947 -42.957066 123 80 45 
13.541667 -13.041667 -42.733334 121 80 44 
13.625000 -13.041667 -42.733334 121 81 45 
13.567010 -12.907216 -42.292782 123 85 48 
13.510204 -12.775510 -41.861225 123 85 48 
13.320000 -12.520000 -41.023998 123 87 49 
13.009708 -12.155340 -39.829124 124 88 49 
12.961538 -12.038462 -39.446152 133 97 58 
-110.363640 -57.272728 -186.472717 204 224 200 
-51.739132 -27.391304 -89.182610 203 220 192 
-49.416668 -26.250000 -85.466667 235 244 220 
-48.742268 -25.979382 -84.585564 243 246 225 
-48.577320 -25.979382 -84.585564 245 246 225 
-48.412373 -25.979382 -84.585564 246 245 224 
-48.247421 -25.979382 -84.585564 241 244 221 
-20.321428 -11.250000 -36.628571 203 218 187 
-20.250000 -11.250000 -36.628571 193 210 179 
-20.178572 -11.250000 -36.628571 191 212 180 
-20.107143 -11.250000 -36.628571 201 224 191 
-20.035715 -11.250000 -36.628571 215 239 203 
-133.090912 -76.363640 -248.630295 226 240 212 
-121.555557 -70.000000 -227.911102 228 238 210 
-101.395348 -58.604652 -190.809296 229 239 206 
-98.727272 -57.272728 -186.472717 225 234 201 
-96.177780 -56.000000 -182.328888 205 215 186 
-95.822220 -56.000000 -182.328888 192 201 179 
254.500000 157.500000 512.799988 236 232 193 
253.500000 157.500000 512.799988 223 218 174 
252.500000 157.500000 512.799988 197 197 152 
-30.299213 -19.842520 -64.604721 180 204 173 
-29.937500 -19.687500 -64.099998 207 225 195 
-29.812500 -19.687500 -64.099998 228 241 214 
10.443350 -12.413794 -40.417732 136 91 50 
10.028169 -11.830986 -38.520187 137 92 51 
9.607142 -11.250000 -36.628571 146 103 61 
9.678572 -11.250000 -36.628571 151 114 73 
10.111111 -11.666667 -37.985184 150 116 74 
10.232558 -11.720930 -38.161861 141 106 65 
10.355140 -11.775701 -38.340187 139 102 60 
10.429907 -11.775701 -38.340187 141 101 61 
10.504673 -11.775701 -38.340187 141 100 59 
10.530232 -11.720930 -38.161861 141 98 57 
10.555555 -11.666667 -37.985184 137 93 52 
10.728972 -11.775701 -38.340187 134 89 50 
13.846154 -13.846154 -45.081318 131 88 50 
13.857924 -13.770492 -44.834972 135 93 55 
13.574468 -13.404255 -43.642551 131 86 50 
13.515789 -13.263158 -43.183155 125 79 43 
13.458333 -13.125000 -42.733334 124 77 42 
13.541667 -13.125000 -42.733334 124 78 42 
13.554404 -13.056994 -42.511917 122 79 42 
13.497436 -12.923077 -42.075897 123 81 44 
13.441625 -12.791878 -41.648731 127 86 48 
13.320000 -12.600000 -41.023998 129 89 51 
13.073171 -12.292683 -40.023415 132 91 55 
13.087379 -12.233009 -39.829124 136 94 59 
-49.583332 -26.416666 -85.466667 196 214 186 
-48.907215 -26.144329 -84.585564 228 238 214 
-48.742268 -26.144329 -84.585564 241 245 224 
-48.577320 -26.144329 -84.585564 243 245 224 
-48.412373 -26.144329 -84.585564 245 246 224 
-48.247421 -26.144329 -84.585564 242 246 221 
-20.321428 -11.321428 -36.628571 202 214 185 
-20.250000 -11.321428 -36.628571 204 217 186 
-20.178572 -11.321428 -36.628571 213 226 193 
-20.107143 -11.321428 -36.628571 223 237 202 
-20.035715 -11.321428 -36.628571 226 240 204 
-112.205132 -65.025642 -210.379486 240 241 215 
-94.782608 -55.130436 -178.365219 237 245 212 
-90.500000 -52.833332 -170.933334 231 242 207 
-90.166664 -52.833332 -170.933334 211 221 191 
-89.833336 -52.833332 -170.933334 197 204 180 
253.500000 158.500000 512.799988 225 218 172 
-30.299213 -19.968504 -64.604721 182 204 173 
-29.937500 -19.812500 -64.099998 220 235 205 
-29.812500 -19.812500 -64.099998 230 241 214 
10.443350 -12.492611 -40.417732 138 91 50 
9.535714 -11.321428 -36.628571 139 92 51 
9.607142 -11.321428 -36.628571 141 96 54 
9.678572 -11.321428 -36.628571 140 101 58 
9.750000 -11.321428 -36.628571 140 104 60 
10.232558 -11.795349 -38.161861 139 101 58 
10.306976 -11.795349 -38.161861 140 102 59 
10.381395 -11.795349 -38.161861 141 102 60 
10.407408 -11.740741 -37.985184 140 98 57 
10.481482 -11.740741 -37.985184 139 97 56 
10.555555 -11.740741 -37.985184 138 95 55 
13.846154 -13.934066 -45.081318 128 81 44 
13.634409 -13.634409 -44.111828 124 78 42 
13.502645 -13.417990 -43.411640 126 78 42 
13.445026 -13.277487 -42.957066 127 78 41 
13.458333 -13.208333 -42.733334 128 79 42 
13.541667 -13.208333 -42.733334 128 81 43 
13.484536 -13.072165 -42.292782 127 82 44 
13.428572 -12.938775 -41.861225 127 82 44 
13.306533 -12.743718 -41.230148 128 84 46 
13.253732 -12.616916 -40.819901 130 87 49 
13.137255 -12.431373 -40.219608 132 89 53 
13.024155 -12.251207 -39.636715 133 89 55 
13.038462 -12.192307 -39.446152 129 85 51 
-49.583332 -26.583334 -85.466667 197 219 189 
-48.907215 -26.309278 -84.585564 211 224 199 
-48.742268 -26.309278 -84.585564 237 244 223 
-48.577320 -26.309278 -84.585564 241 246 224 
-48.412373 -26.309278 -84.585564 242 245 222 
-20.392857 -11.392858 -36.628571 218 225 200 
-20.321428 -11.392858 -36.628571 220 229 202 
-20.250000 -11.392858 -36.628571 231 239 208 
-20.178572 -11.392858 -36.628571 233 240 205 
-20.107143 -11.392858 -36.628571 233 237 201 
-20.035715 -11.392858 -36.628571 230 230 196 
-94.782608 -55.478260 -178.365219 233 241 208 
-90.500000 -53.166668 -170.933334 226 239 203 
-88.326530 -52.081635 -167.444901 213 222 190 
-88.000000 -52.081635 -167.444901 198 203 178 
10.318841 -12.328503 -39.636715 139 91 48 
9.607142 -11.392858 -36.628571 140 93 50 
9.678572 -11.392858 -36.628571 141 98 53 
10.232558 -11.869767 -38.161861 142 101 57 
10.306976 -11.869767 -38.161861 141 99 56 
10.381395 -11.869767 -38.161861 142 99 57 
10.407408 -11.814815 -37.985184 140 97 55 
10.530232 -11.869767 -38.161861 145 101 61 
13.758242 -14.021978 -45.081318 134 86 48 
13.621622 -13.794595 -44.350269 131 83 47 
13.417990 -13.502645 -43.411640 127 79 43 
13.431579 -13.431579 -43.183155 126 78 41 
13.375000 -13.291667 -42.733334 125 76 38 
13.458333 -13.291667 -42.733334 129 81 43 
13.471502 -13.222798 -42.511917 129 84 45 
13.415384 -13.087179 -42.075897 126 82 43 
13.292930 -12.888889 -41.438381 128 84 45 
13.174129 -12.696517 -40.819901 133 90 51 
13.123153 -12.571428 -40.417732 131 89 49 
13.009708 -12.388350 -39.829124 128 85 48 
12.961538 -12.269231 -39.446152 126 83 48 
12.976076 -12.210526 -39.257416 128 85 50 
12.990477 -12.152381 -39.070477 129 86 50 
13.129187 -12.210526 -39.257416 127 84 48 
-49.072166 -26.474226 -84.585564 206 229 199 
-48.408165 -26.204082 -83.722450 194 211 185 
-48.244900 -26.204082 -83.722450 216 228 205 
-48.081635 -26.204082 -83.722450 235 245 222 
-47.918365 -26.204082 -83.722450 239 246 222 
-47.755100 -26.204082 -83.722450 240 244 217 
-20.321428 -11.464286 -36.628571 238 244 218 
-20.250000 -11.464286 -36.628571 239 244 213 
-20.178572 -11.464286 -36.628571 238 239 204 
-20.107143 -11.464286 -36.628571 238 235 197 
-88.326530 -52.408165 -167.444901 210 219 186 
-86.239998 -51.360001 -164.095993 202 206 178 
-85.919998 -51.360001 -164.095993 196 197 175 
10.381395 -11.944186 -38.161861 141 94 53 
13.621622 -13.881081 -44.350269 137 91 54 
13.347368 -13.515789 -43.183155 134 88 51 
13.361257 -13.445026 -42.957066 130 84 45 
13.375000 -13.375000 -42.733334 125 79 39 
13.388601 -13.305699 -42.511917 132 87 46 
13.402061 -13.237113 -42.292782 133 89 48 
13.279188 -13.035533 -41.648731 128 85 44 
13.226130 -12.904523 -41.230148 125 84 43 
13.108911 -12.712872 -40.617821 128 88 46 
13.058824 -12.588235 -40.219608 126 86 44 
12.946860 -12.405797 -39.636715 121 82 41 
12.961538 -12.346154 -39.446152 123 83 43 
12.976076 -12.287082 -39.257416 131 91 52 
12.990477 -12.228572 -39.070477 130 90 51 
13.129187 -12.287082 -39.257416 129 89 50 
13.142858 -12.228572 -39.070477 129 89 49 
-48.408165 -26.367348 -83.722450 201 223 195 
-48.244900 -26.367348 -83.722450 190 209 183 
-48.081635 -26.367348 -83.722450 209 225 199 
-47.918365 -26.367348 -83.722450 227 239 212 
-47.755100 -26.367348 -83.722450 238 244 216 
-20.250000 -11.535714 -36.628571 242 242 213 
-20.178572 -11.535714 -36.628571 241 237 202 
-82.923080 -49.692307 -157.784607 224 228 198 
-81.056602 -48.754719 -154.807541 211 212 187 
10.528302 -12.188680 -38.701885 142 93 52 
13.277487 -13.528796 -42.957066 133 88 51 
13.361257 -13.528796 -42.957066 132 88 48 
13.375000 -13.458333 -42.733334 128 85 44 
13.388601 -13.388601 -42.511917 133 91 49 
13.402061 -13.319588 -42.292782 134 92 50 
13.279188 -13.116752 -41.648731 132 91 48 
13.029703 -12.792079 -40.617821 129 91 48 
12.980392 -12.666667 -40.219608 128 90 46 
12.869565 -12.483091 -39.636715 128 90 47 
12.884615 -12.423077 -39.446152 129 91 48 
12.899522 -12.363636 -39.257416 132 95 51 
12.976076 -12.363636 -39.257416 139 102 58 
13.052631 -12.363636 -39.257416 141 103 59 
13.129187 -12.363636 -39.257416 135 97 54 
13.142858 -12.304762 -39.070477 135 98 54 
10.628572 -12.380953 -39.070477 142 96 53 
10.704762 -12.380953 -39.070477 143 99 56 
13.347368 -13.684211 -43.183155 137 93 54 
13.361257 -13.612565 -42.957066 133 91 49 
13.375000 -13.541667 -42.733334 131 91 47 
13.458333 -13.541667 -42.733334 135 96 52 
13.402061 -13.402061 -42.292782 137 97 53 
13.346939 -13.265306 -41.861225 135 97 52 
13.094527 -12.935324 -40.819901 133 95 50 
12.980392 -12.745098 -40.219608 133 95 50 
12.869565 -12.560387 -39.636715 136 98 54 
12.884615 -12.500000 -39.446152 137 98 55 
12.899522 -12.440191 -39.257416 141 102 60 
12.976076 -12.440191 -39.257416 142 103 61 
13.052631 -12.440191 -39.257416 142 103 61 
13.129187 -12.440191 -39.257416 135 97 55 
13.205742 -12.440191 -39.257416 134 96 54 
10.552381 -12.457143 -39.070477 149 102 58 
10.628572 -12.457143 -39.070477 146 102 58 
10.704762 -12.457143 -39.070477 149 108 64 
10.832536 -12.516747 -39.257416 161 122 78 
14.318182 -14.863636 -46.618179 137 94 55 
13.561498 -13.989305 -43.875935 136 94 53 
13.431579 -13.768421 -43.183155 135 94 51 
13.515789 -13.768421 -43.183155 134 93 49 
13.458333 -13.625000 -42.733334 137 96 52 
13.402061 -13.484536 -42.292782 137 97 53 
13.346939 -13.346939 -41.861225 138 97 53 
13.094527 -13.014925 -40.819901 133 93 49 
12.980392 -12.823529 -40.219608 137 96 52 
12.869565 -12.637681 -39.636715 141 100 56 
12.884615 -12.576923 -39.446152 137 98 56 
12.899522 -12.516747 -39.257416 142 103 62 
12.976076 -12.516747 -39.257416 138 99 58 
12.990477 -12.457143 -39.070477 135 96 55 
13.129187 -12.516747 -39.257416 136 97 56 
10.679426 -12.593302 -39.257416 149 104 59 
10.704762 -12.533334 -39.070477 149 106 63 
10.832536 -12.593302 -39.257416 157 116 72 
14.186047 -15.302325 -47.702324 135 94 54 
14.196532 -15.213873 -47.426590 136 95 55 
14.206897 -15.126437 -47.154022 136 95 55 
14.298851 -15.126437 -47.154022 137 95 55 
14.308572 -15.040000 -46.884571 137 95 55 
14.078213 -14.703911 -45.836872 134 92 52 
13.782609 -14.304348 -44.591305 133 91 51 
13.647058 -14.074866 -43.875935 136 93 52 
13.515789 -13.852632 -43.183155 137 93 51 
13.600000 -13.852632 -43.183155 137 94 52 
13.541667 -13.708333 -42.733334 137 93 51 
13.415384 -13.497436 -42.075897 138 94 52 
13.160000 -13.160000 -41.023998 137 94 52 
12.980392 -12.901960 -40.219608 135 91 49 
12.807693 -12.653846 -39.446152 137 94 52 
12.822967 -12.593302 -39.257416 137 96 55 
12.899522 -12.593302 -39.257416 137 98 57 
12.976076 -12.593302 -39.257416 136 97 56 
12.990477 -12.533334 -39.070477 135 96 55 
13.192307 -12.653846 -39.446152 132 93 52 
10.755980 -12.669856 -39.257416 146 102 57 
10.832536 -12.669856 -39.257416 146 103 59 
14.258823 -15.576470 -48.263527 136 94 54 
14.186047 -15.395349 -47.702324 136 93 53 
14.196532 -15.306358 -47.426590 134 91 52 
14.206897 -15.218390 -47.154022 135 93 53 
14.217143 -15.131429 -46.884571 136 94 54 
14.227273 -15.045455 -46.618179 134 94 53 
14.078213 -14.793296 -45.836872 134 94 53 
13.934066 -14.549451 -45.081318 134 94 53 
13.794595 -14.313514 -44.350269 135 92 51 
13.732620 -14.160428 -43.875935 136 91 50 
13.600000 -13.936842 -43.183155 136 91 50 
13.541667 -13.791667 -42.733334 136 91 50 
13.484536 -13.649485 -42.292782 138 93 52 
13.226130 -13.306533 -41.230148 138 93 53 
12.980392 -12.980392 -40.219608 136 91 50 
12.807693 -12.730769 -39.446152 136 92 51 
12.884615 -12.730769 -39.446152 136 95 54 
12.899522 -12.669856 -39.257416 134 95 54 
12.976076 -12.669856 -39.257416 133 94 53 
13.115385 -12.730769 -39.446152 132 93 52 
10.603773 -12.566038 -38.701885 148 101 55 
10.629108 -12.507042 -38.520187 147 101 57 
14.593940 -16.145454 -49.726059 131 88 48 
14.514970 -15.952096 -49.130539 135 91 52 
14.269006 -15.578947 -47.981285 138 93 54 
14.279070 -15.488372 -47.702324 133 90 50 
14.289018 -15.398844 -47.426590 134 92 52 
14.381503 -15.398844 -47.426590 135 95 55 
14.308572 -15.222857 -46.884571 134 96 54 
14.157304 -14.966292 -46.094379 132 95 53 
14.088889 -14.800000 -45.582222 132 95 53 
13.945355 -14.557377 -44.834972 133 91 50 
13.806452 -14.322580 -44.111828 133 89 49 
13.600000 -14.021052 -43.183155 135 90 50 
13.541667 -13.875000 -42.733334 135 91 51 
13.484536 -13.731958 -42.292782 138 93 53 
13.292930 -13.454545 -41.438381 135 91 51 
13.306533 -13.386934 -41.230148 136 91 51 
12.869565 -12.869565 -39.636715 135 91 51 
12.884615 -12.807693 -39.446152 131 89 49 
12.961538 -12.807693 -39.446152 131 92 51 
9.964286 -11.964286 -36.628571 154 106 58 
10.035714 -11.964286 -36.628571 150 102 55 
10.107142 -11.964286 -36.628571 148 101 55 
10.178572 -11.964286 -36.628571 148 99 55 
14.593940 -16.242424 -49.726059 134 87 48 
14.780488 -16.341463 -50.029266 135 88 49 
14.787879 -16.242424 -49.726059 136 90 51 
14.706587 -16.047905 -49.130539 136 91 52 
14.541177 -15.764706 -48.263527 137 94 54 
14.549707 -15.672515 -47.981285 134 94 54 
14.473989 -15.491329 -47.426590 134 96 55 
14.400000 -15.314285 -46.884571 134 98 56 
14.327683 -15.141243 -46.354801 132 97 54 
14.099447 -14.806630 -45.330387 130 91 50 
13.659575 -14.255320 -43.642551 131 89 49 
13.458333 -13.958333 -42.733334 134 92 52 
13.402061 -13.814433 -42.292782 135 93 53 
13.484536 -13.814433 -42.292782 139 97 57 
9.821428 -12.035714 -36.628571 157 108 57 
9.892858 -12.035714 -36.628571 156 106 57 
9.964286 -12.035714 -36.628571 152 103 55 
10.035714 -12.035714 -36.628571 150 100 53 
10.107142 -12.035714 -36.628571 150 99 54 
10.178572 -12.035714 -36.628571 148 97 53 
10.250000 -12.035714 -36.628571 144 96 52 
14.950000 -16.850000 -51.279999 134 84 46 
14.864198 -16.641975 -50.646912 136 86 49 
15.055901 -16.745342 -50.961491 136 87 50 
15.155279 -16.745342 -50.961491 136 88 50 
15.160494 -16.641975 -50.646912 136 90 51 
15.165645 -16.539877 -50.336197 136 92 53 
15.263803 -16.539877 -50.336197 133 93 53 
15.650000 -16.850000 -51.279999 134 97 55 
13.528796 -14.115183 -42.957066 132 94 54 
13.541667 -14.041667 -42.733334 130 92 52 
26.793652 -43.047619 -130.234924 157 109 56 
26.625000 -42.375000 -128.199997 159 110 58 
26.875000 -42.375000 -128.199997 161 112 59 
27.625000 -42.375000 -128.199997 159 110 58 
27.875000 -42.375000 -128.199997 160 109 57 
28.125000 -42.375000 -128.199997 160 108 56 
28.375000 -42.375000 -128.199997 161 110 58 
28.625000 -42.375000 -128.199997 162 110 58 
9.892858 -12.107142 -36.628571 148 99 50 
9.964286 -12.107142 -36.628571 144 94 46 
10.035714 -12.107142 -36.628571 144 93 46 
10.107142 -12.107142 -36.628571 146 95 49 
10.178572 -12.107142 -36.628571 144 93 48 
15.235669 -17.273886 -52.259872 130 80 41 
15.050000 -16.950001 -51.279999 131 81 43 
15.150000 -16.950001 -51.279999 132 82 44 
15.250000 -16.950001 -51.279999 134 86 47 
15.350000 -16.950001 -51.279999 130 84 45 
15.450000 -16.950001 -51.279999 130 87 47 
15.550000 -16.950001 -51.279999 131 91 50 
16.051283 -17.384615 -52.594872 130 93 51 
25.777779 -43.301586 -130.234924 145 96 46 
25.230770 -41.969231 -126.227692 146 97 47 
25.476923 -41.969231 -126.227692 145 99 49 
26.125000 -42.625000 -128.199997 144 100 49 
26.375000 -42.625000 -128.199997 142 97 47 
26.625000 -42.625000 -128.199997 144 99 48 
26.875000 -42.625000 -128.199997 145 101 50 
27.125000 -42.625000 -128.199997 145 100 49 
27.375000 -42.625000 -128.199997 144 100 49 
27.625000 -42.625000 -128.199997 142 97 46 
27.875000 -42.625000 -128.199997 144 93 44 
28.125000 -42.625000 -128.199997 146 92 44 
27.938461 -41.969231 -126.227692 148 93 46 
28.184616 -41.969231 -126.227692 148 94 47 
28.430769 -41.969231 -126.227692 147 95 47 
10.035714 -12.178572 -36.628571 136 91 44 
10.107142 -12.178572 -36.628571 137 92 46 
16.964539 -19.347517 -58.190071 121 76 34 
15.337580 -17.375795 -52.259872 121 77 34 
15.439490 -17.375795 -52.259872 122 77 33 
15.443038 -17.265823 -51.929111 125 80 37 
15.544304 -17.265823 -51.929111 123 80 37 
15.745223 -17.375795 -52.259872 124 84 40 
15.948718 -17.487179 -52.594872 127 89 45 
16.693333 -18.186666 -54.698666 130 92 49 
-14.900000 -34.299999 -102.559998 171 184 165 
26.799999 -45.733334 -136.746658 135 85 39 
24.984615 -42.215385 -126.227692 136 86 40 
25.230770 -42.215385 -126.227692 137 88 42 
25.090910 -41.575756 -124.315147 137 91 44 
25.333334 -41.575756 -124.315147 136 92 45 
26.375000 -42.875000 -128.199997 136 92 45 
26.625000 -42.875000 -128.199997 138 95 47 
26.461538 -42.215385 -126.227692 138 94 46 
26.303030 -41.575756 -124.315147 136 92 45 
26.545454 -41.575756 -124.315147 133 90 42 
27.200001 -42.215385 -126.227692 129 84 37 
27.446154 -42.215385 -126.227692 129 77 32 
27.692308 -42.215385 -126.227692 132 77 33 
27.938461 -42.215385 -126.227692 133 79 35 
28.184616 -42.215385 -126.227692 133 80 35 
18.000000 -20.787878 -62.157574 125 83 38 
16.964539 -19.460993 -58.190071 126 83 38 
16.161074 -18.416107 -55.065769 130 88 42 
15.947369 -18.052631 -53.978947 132 91 43 
16.052631 -18.052631 -53.978947 131 91 42 
16.157894 -18.052631 -53.978947 131 93 44 
16.370861 -18.172186 -54.336422 133 96 47 
16.586666 -18.293333 -54.698666 136 100 52 
-14.536586 -33.658535 -100.058533 163 188 166 
-13.835294 -32.470589 -96.527054 176 207 186 
-12.608696 -30.000000 -89.182610 176 209 190 
26.799999 -46.000000 -136.746658 131 80 38 
25.375000 -43.125000 -128.199997 133 81 40 
24.848484 -41.818180 -124.315147 134 83 41 
24.716417 -41.194031 -122.459702 132 84 41 
25.333334 -41.818180 -124.315147 134 88 44 
25.575758 -41.818180 -124.315147 141 95 51 
26.215385 -42.461540 -126.227692 139 93 49 
26.060606 -41.818180 -124.315147 134 88 45 
26.303030 -41.818180 -124.315147 133 87 43 
26.545454 -41.818180 -124.315147 133 87 43 
26.787878 -41.818180 -124.315147 128 81 38 
27.030304 -41.818180 -124.315147 126 74 33 
27.272728 -41.818180 -124.315147 126 73 32 
27.515152 -41.818180 -124.315147 126 74 32 
28.184616 -42.461540 -126.227692 126 75 33 
17.878788 -20.909090 -62.157574 137 93 50 
16.851065 -19.574469 -58.190071 133 89 45 
16.496552 -19.034483 -56.584827 138 94 48 
16.161074 -18.523489 -55.065769 144 101 54 
16.160000 -18.400000 -54.698666 140 101 50 
16.266666 -18.400000 -54.698666 139 103 49 
16.707483 -18.775511 -55.814964 141 105 51 
16.816326 -18.775511 -55.814964 141 106 54 
17.041096 -18.904110 -56.197258 143 110 58 
-12.782609 -30.173914 -89.182610 177 211 189 
-12.210526 -29.221052 -86.366310 165 199 179 
-12.170213 -29.531916 -87.285103 156 184 165 
26.799999 -46.266666 -136.746658 129 76 36 
25.375000 -43.375000 -128.199997 130 77 37 
24.848484 -42.060608 -124.315147 130 77 37 
25.090910 -42.060608 -124.315147 129 78 38 
25.333334 -42.060608 -124.315147 127 79 37 
25.575758 -42.060608 -124.315147 133 84 43 
25.818182 -42.060608 -124.315147 131 82 41 
26.060606 -42.060608 -124.315147 128 79 38 
26.303030 -42.060608 -124.315147 126 78 37 
26.545454 -42.060608 -124.315147 127 79 37 
26.787878 -42.060608 -124.315147 126 77 36 
27.030304 -42.060608 -124.315147 126 75 34 
27.272728 -42.060608 -124.315147 125 73 33 
27.938461 -42.707691 -126.227692 124 73 32 
28.625000 -43.375000 -128.199997 124 75 34 
18.030769 -21.353846 -63.113846 129 82 40 
17.744360 -20.872181 -61.690224 129 83 40 
16.851065 -19.687943 -58.190071 125 79 34 
16.383562 -19.013699 -56.197258 131 84 38 
16.053333 -18.506666 -54.698666 135 91 43 
16.160000 -18.506666 -54.698666 135 96 43 
16.266666 -18.506666 -54.698666 143 109 52 
16.707483 -18.884354 -55.814964 143 110 52 
16.931507 -19.013699 -56.197258 140 108 52 
17.158621 -19.144827 -56.584827 142 111 56 
-12.378947 -29.389473 -86.366310 174 204 182 
-12.083333 -29.083334 -85.466667 149 181 161 
26.799999 -46.533333 -136.746658 130 77 36 
25.375000 -43.625000 -128.199997 130 77 36 
24.848484 -42.303032 -124.315147 130 77 36 
25.090910 -42.303032 -124.315147 130 78 37 
25.333334 -42.303032 -124.315147 128 76 36 
25.575758 -42.303032 -124.315147 129 77 36 
25.818182 -42.303032 -124.315147 130 79 38 
26.060606 -42.303032 -124.315147 130 79 38 
26.303030 -42.303032 -124.315147 129 78 37 
26.545454 -42.303032 -124.315147 129 77 36 
27.200001 -42.953846 -126.227692 128 76 35 
27.446154 -42.953846 -126.227692 128 76 35 
28.125000 -43.625000 -128.199997 128 75 35 
28.375000 -43.625000 -128.199997 127 75 34 
28.625000 -43.625000 -128.199997 126 76 35 
18.187500 -21.812500 -64.099998 128 80 38 
17.893129 -21.312977 -62.632061 125 76 33 
17.611940 -20.835821 -61.229851 125 77 33 
16.615385 -19.524475 -57.376221 129 81 36 
16.272108 -18.993196 -55.814964 136 89 42 
16.053333 -18.613333 -54.698666 138 92 44 
15.947369 -18.368422 -53.978947 145 106 52 
16.266666 -18.613333 -54.698666 151 116 58 
16.937931 -19.255173 -56.584827 145 111 53 
-12.250000 -29.250000 -85.466667 175 201 180 
-12.083333 -29.250000 -85.466667 152 181 162 
26.799999 -46.799999 -136.746658 138 84 41 
25.375000 -43.875000 -128.199997 137 83 40 
24.848484 -42.545456 -124.315147 135 81 38 
25.090910 -42.545456 -124.315147 135 81 38 
25.333334 -42.545456 -124.315147 134 81 37 
25.575758 -42.545456 -124.315147 135 81 38 
25.818182 -42.545456 -124.315147 135 81 38 
26.060606 -42.545456 -124.315147 135 81 38 
26.303030 -42.545456 -124.315147 136 82 39 
26.953846 -43.200001 -126.227692 135 82 39 
27.625000 -43.875000 -128.199997 134 80 37 
27.875000 -43.875000 -128.199997 134 79 36 
28.125000 -43.875000 -128.199997 134 78 36 
28.375000 -43.875000 -128.199997 133 79 36 
28.625000 -43.875000 -128.199997 132 79 36 
29.806452 -45.290321 -132.335480 132 80 37 
17.907692 -21.600000 -63.113846 138 87 45 
17.757576 -21.272728 -62.157574 131 81 37 
17.352942 -20.647058 -60.329411 130 80 35 
16.500000 -19.500000 -56.977776 135 85 38 
16.053692 -18.845638 -55.065769 142 92 45 
15.842105 -18.473684 -53.978947 138 89 41 
15.740260 -18.233767 -53.277920 143 101 48 
16.052631 -18.473684 -53.978947 148 109 54 
-12.250000 -29.416666 -85.466667 181 208 186 
-12.083333 -29.416666 -85.466667 167 196 176 
-80.500000 176.500000 512.799988 132 84 44 
-81.500000 176.500000 512.799988 133 85 44 
-82.500000 176.500000 512.799988 135 86 42 
-83.500000 176.500000 512.799988 138 88 41 
-84.500000 176.500000 512.799988 138 87 38 
-85.500000 176.500000 512.799988 138 86 35 
26.193548 -45.548386 -132.335480 148 94 46 
24.848484 -42.787880 -124.315147 143 89 41 
25.090910 -42.787880 -124.315147 143 88 41 
24.955223 -42.149254 -122.459702 143 87 40 
25.575758 -42.787880 -124.315147 143 87 40 
25.818182 -42.787880 -124.315147 143 88 41 
26.461538 -43.446156 -126.227692 144 89 41 
27.125000 -44.125000 -128.199997 145 89 42 
27.375000 -44.125000 -128.199997 144 89 42 
27.625000 -44.125000 -128.199997 143 87 40 
27.875000 -44.125000 -128.199997 143 85 39 
28.571428 -44.825397 -130.234924 144 84 39 
29.290323 -45.548386 -132.335480 143 85 39 
29.548388 -45.548386 -132.335480 142 86 39 
29.806452 -45.548386 -132.335480 142 87 39 
17.757576 -21.393940 -62.157574 135 82 38 
17.226278 -20.613138 -59.889050 134 82 36 
16.273973 -19.342466 -56.197258 130 78 31 
15.841060 -18.701986 -54.336422 135 83 35 
15.435898 -18.102564 -52.594872 137 86 38 
15.439490 -17.987261 -52.259872 139 93 43 
-12.250000 -29.583334 -85.466667 176 209 185 
-12.083333 -29.583334 -85.466667 173 204 183 
-79.500000 177.500000 512.799988 125 78 40 
-80.500000 177.500000 512.799988 130 82 43 
-81.500000 177.500000 512.799988 132 83 42 
-82.500000 177.500000 512.799988 135 85 41 
-83.500000 177.500000 512.799988 138 87 40 
-84.500000 177.500000 512.799988 140 88 39 
-85.500000 177.500000 512.799988 142 88 36 
-86.500000 177.500000 512.799988 140 86 33 
-87.500000 177.500000 512.799988 140 85 34 
24.848484 -43.030304 -124.315147 148 92 42 
24.716417 -42.388062 -122.459702 149 93 43 
22.594595 -38.378380 -110.875671 157 100 50 
25.194031 -42.388062 -122.459702 155 98 48 
25.432837 -42.388062 -122.459702 152 95 45 
26.060606 -43.030304 -124.315147 152 95 45 
27.555555 -45.079365 -130.234924 151 95 44 
27.375000 -44.375000 -128.199997 151 95 44 
27.625000 -44.375000 -128.199997 150 93 42 
27.875000 -44.375000 -128.199997 151 91 41 
28.571428 -45.079365 -130.234924 152 90 42 
29.290323 -45.806450 -132.335480 152 91 42 
29.548388 -45.806450 -132.335480 151 91 42 
29.806452 -45.806450 -132.335480 150 91 42 
18.030769 -21.846153 -63.113846 133 78 34 
17.226278 -20.729927 -59.889050 134 79 34 
16.163265 -19.319727 -55.814964 132 78 31 
15.736842 -18.684210 -53.978947 136 83 35 
15.337580 -18.089172 -52.259872 140 88 40 
15.439490 -18.089172 -52.259872 144 94 46 
-79.500000 178.500000 512.799988 127 78 39 
-80.500000 178.500000 512.799988 129 80 40 
-81.500000 178.500000 512.799988 132 81 40 
-82.500000 178.500000 512.799988 135 84 41 
-83.500000 178.500000 512.799988 139 87 41 
-84.500000 178.500000 512.799988 142 89 41 
-85.500000 178.500000 512.799988 143 89 39 
-86.500000 178.500000 512.799988 142 87 36 
-87.500000 178.500000 512.799988 141 85 37 
-88.500000 178.500000 512.799988 141 86 39 
-89.500000 178.500000 512.799988 144 87 41 
-90.500000 178.500000 512.799988 147 89 43 
-91.500000 178.500000 512.799988 148 90 43 
-92.500000 178.500000 512.799988 149 90 43 
22.465754 -39.123287 -112.394516 154 94 44 
22.080000 -38.080002 -109.397331 153 94 44 
21.714285 -37.090908 -106.555840 157 97 48 
22.506666 -38.080002 -109.397331 157 97 47 
22.719999 -38.080002 -109.397331 156 96 46 
27.625000 -44.625000 -128.199997 153 94 40 
27.875000 -44.625000 -128.199997 155 94 41 
28.125000 -44.625000 -128.199997 156 94 42 
28.375000 -44.625000 -128.199997 156 94 42 
29.079365 -45.333332 -130.234924 156 95 42 
29.806452 -46.064518 -132.335480 156 95 42 
18.015266 -21.801527 -62.632061 138 76 31 
16.163265 -19.428572 -55.814964 139 82 34 
16.162163 -19.297297 -55.437836 141 91 40 
15.842105 -18.789474 -53.978947 147 101 49 
-79.500000 179.500000 512.799988 128 78 38 
-80.500000 179.500000 512.799988 131 80 41 
-81.500000 179.500000 512.799988 133 81 41 
-82.500000 179.500000 512.799988 135 83 40 
-83.500000 179.500000 512.799988 139 86 40 
-84.500000 179.500000 512.799988 141 87 40 
-85.500000 179.500000 512.799988 142 88 39 
-86.500000 179.500000 512.799988 142 87 37 
-87.500000 179.500000 512.799988 140 85 39 
-88.500000 179.500000 512.799988 139 85 41 
-89.500000 179.500000 512.799988 142 86 41 
-90.500000 179.500000 512.799988 144 86 41 
-91.500000 179.500000 512.799988 148 90 44 
-92.500000 179.500000 512.799988 151 91 45 
-93.500000 179.500000 512.799988 152 91 44 
-94.500000 179.500000 512.799988 155 95 48 
22.080000 -38.293335 -109.397331 154 92 43 
21.714285 -37.298702 -106.555840 153 92 42 
22.506666 -38.293335 -109.397331 154 92 42 
22.719999 -38.293335 -109.397331 155 93 43 
27.875000 -44.875000 -128.199997 156 95 40 
28.125000 -44.875000 -128.199997 158 97 43 
28.375000 -44.875000 -128.199997 158 97 44 
29.079365 -45.587303 -130.234924 157 96 42 
11.321428 -12.821428 -36.628571 129 87 42 
11.392858 -12.821428 -36.628571 132 84 40 
11.464286 -12.821428 -36.628571 135 84 42 
-80.500000 180.500000 512.799988 133 82 42 
-81.500000 180.500000 512.799988 134 82 42 
-82.500000 180.500000 512.799988 135 82 39 
-83.500000 180.500000 512.799988 137 85 39 
-84.500000 180.500000 512.799988 139 86 39 
-85.500000 180.500000 512.799988 140 86 37 
-86.500000 180.500000 512.799988 140 85 35 
-87.500000 180.500000 512.799988 139 85 38 
-88.500000 180.500000 512.799988 139 86 41 
-89.500000 180.500000 512.799988 141 86 41 
-90.500000 180.500000 512.799988 142 86 41 
-91.500000 180.500000 512.799988 146 88 42 
-92.500000 180.500000 512.799988 150 91 45 
-93.500000 180.500000 512.799988 151 91 44 
-94.500000 180.500000 512.799988 154 94 46 
-95.500000 180.500000 512.799988 154 96 47 
22.719999 -38.506668 -109.397331 153 91 41 
11.178572 -12.892858 -36.628571 141 99 53 
11.250000 -12.892858 -36.628571 133 89 44 
11.321428 -12.892858 -36.628571 131 84 41 
11.392858 -12.892858 -36.628571 131 81 38 
11.464286 -12.892858 -36.628571 130 80 37 
-81.500000 181.500000 512.799988 134 82 41 
-82.500000 181.500000 512.799988 135 83 40 
-83.500000 181.500000 512.799988 136 84 38 
-84.500000 181.500000 512.799988 138 84 37 
-85.500000 181.500000 512.799988 139 85 36 
-89.500000 181.500000 512.799988 141 87 42 
-90.500000 181.500000 512.799988 143 88 42 
-91.500000 181.500000 512.799988 145 88 42 
-93.500000 181.500000 512.799988 150 92 45 
-94.500000 181.500000 512.799988 153 93 46 
-95.500000 181.500000 512.799988 156 95 48 
-96.500000 181.500000 512.799988 156 95 47 
7.678571 -12.964286 -36.628571 153 93 39 
11.107142 -12.964286 -36.628571 145 103 54 
11.178572 -12.964286 -36.628571 140 95 50 
11.250000 -12.964286 -36.628571 137 88 45 
11.321428 -12.964286 -36.628571 133 81 39 
11.392858 -12.964286 -36.628571 131 79 36 
11.464286 -12.964286 -36.628571 128 77 34 
11.535714 -12.964286 -36.628571 128 78 35 
-95.500000 182.500000 512.799988 154 93 47 
7.607143 -13.035714 -36.628571 154 96 44 
7.678571 -13.035714 -36.628571 153 95 41 
7.750000 -13.035714 -36.628571 153 95 40 
11.035714 -13.035714 -36.628571 151 108 59 
11.107142 -13.035714 -36.628571 136 92 44 
11.178572 -13.035714 -36.628571 131 85 40 
11.250000 -13.035714 -36.628571 133 82 39 
11.321428 -13.035714 -36.628571 133 79 37 
11.392858 -13.035714 -36.628571 131 78 36 
11.464286 -13.035714 -36.628571 129 78 35 
11.535714 -13.035714 -36.628571 129 80 37 
7.178571 -13.107142 -36.628571 152 96 49 
7.250000 -13.107142 -36.628571 152 96 49 
7.607143 -13.107142 -36.628571 155 97 45 
7.678571 -13.107142 -36.628571 152 95 41 
7.750000 -13.107142 -36.628571 153 96 41 
7.821429 -13.107142 -36.628571 152 95 39 
11.035714 -13.107142 -36.628571 134 89 40 
11.107142 -13.107142 -36.628571 125 81 33 
11.178572 -13.107142 -36.628571 127 81 36 
11.250000 -13.107142 -36.628571 130 80 37 
11.321428 -13.107142 -36.628571 131 78 36 
11.392858 -13.107142 -36.628571 130 78 35 
11.464286 -13.107142 -36.628571 130 79 36 
11.535714 -13.107142 -36.628571 131 81 39 
7.178571 -13.178572 -36.628571 151 98 51 
7.250000 -13.178572 -36.628571 150 99 52 
7.321429 -13.178572 -36.628571 152 101 53 
7.535714 -13.178572 -36.628571 153 96 45 
7.607143 -13.178572 -36.628571 152 97 44 
7.678571 -13.178572 -36.628571 152 96 41 
7.750000 -13.178572 -36.628571 153 97 42 
7.821429 -13.178572 -36.628571 152 96 40 
11.035714 -13.178572 -36.628571 131 84 36 
11.107142 -13.178572 -36.628571 128 83 36 
11.178572 -13.178572 -36.628571 127 82 37 
11.250000 -13.178572 -36.628571 128 81 37 
11.321428 -13.178572 -36.628571 130 81 38 
11.392858 -13.178572 -36.628571 130 80 37 
11.464286 -13.178572 -36.628571 133 82 39 
11.535714 -13.178572 -36.628571 132 82 39 
7.178571 -13.250000 -36.628571 151 103 55 
7.250000 -13.250000 -36.628571 151 105 56 
7.321429 -13.250000 -36.628571 154 107 58 
7.392857 -13.250000 -36.628571 156 105 55 
7.464286 -13.250000 -36.628571 155 100 49 
7.535714 -13.250000 -36.628571 154 99 48 
7.607143 -13.250000 -36.628571 154 99 46 
7.678571 -13.250000 -36.628571 154 99 44 
7.750000 -13.250000 -36.628571 155 100 44 
7.821429 -13.250000 -36.628571 151 96 40 
11.107142 -13.250000 -36.628571 132 86 39 
11.178572 -13.250000 -36.628571 130 85 40 
11.250000 -13.250000 -36.628571 128 83 38 
11.321428 -13.250000 -36.628571 128 82 37 
11.392858 -13.250000 -36.628571 131 81 38 
11.464286 -13.250000 -36.628571 134 83 40 
11.535714 -13.250000 -36.628571 130 81 38 
15.586855 -13.934273 -38.520187 85 85 46 
15.516279 -13.804651 -38.161861 92 89 51 
15.663551 -13.869159 -38.340187 91 89 51 
15.962086 -14.066351 -38.885307 87 87 49 
16.269230 -14.269231 -39.446152 76 78 40 
7.178571 -13.321428 -36.628571 152 107 60 
7.250000 -13.321428 -36.628571 153 109 61 
7.321429 -13.321428 -36.628571 157 112 64 
7.392857 -13.321428 -36.628571 158 107 59 
7.464286 -13.321428 -36.628571 155 102 54 
7.535714 -13.321428 -36.628571 154 100 51 
7.607143 -13.321428 -36.628571 156 102 52 
7.678571 -13.321428 -36.628571 157 102 51 
7.750000 -13.321428 -36.628571 155 99 47 
7.821429 -13.321428 -36.628571 151 94 41 
11.035714 -13.321428 -36.628571 135 83 38 
11.107142 -13.321428 -36.628571 134 84 39 
11.178572 -13.321428 -36.628571 132 83 38 
11.250000 -13.321428 -36.628571 130 82 37 
11.321428 -13.321428 -36.628571 130 82 37 
11.392858 -13.321428 -36.628571 133 83 39 
11.464286 -13.321428 -36.628571 133 82 39 
15.511737 -14.009390 -38.520187 85 82 42 
15.441860 -13.879069 -38.161861 78 78 42 
15.516279 -13.879069 -38.161861 79 82 48 
15.590697 -13.879069 -38.161861 81 85 51 
15.812206 -14.009390 -38.520187 83 88 54 
16.114286 -14.209524 -39.070477 78 83 50 
16.346153 -14.346154 -39.446152 61 67 34 
7.321429 -13.392858 -36.628571 158 113 66 
7.392857 -13.392858 -36.628571 156 106 59 
7.464286 -13.392858 -36.628571 153 101 54 
7.535714 -13.392858 -36.628571 153 100 53 
7.607143 -13.392858 -36.628571 156 103 55 
7.678571 -13.392858 -36.628571 159 104 55 
7.750000 -13.392858 -36.628571 158 102 52 
10.964286 -13.392858 -36.628571 136 82 38 
11.035714 -13.392858 -36.628571 136 82 38 
11.107142 -13.392858 -36.628571 135 82 38 
11.178572 -13.392858 -36.628571 134 82 37 
11.250000 -13.392858 -36.628571 134 83 38 
11.321428 -13.392858 -36.628571 134 85 40 
11.392858 -13.392858 -36.628571 135 85 41 
14.535714 -13.392858 -36.628571 75 75 41 
14.607142 -13.392858 -36.628571 88 86 49 
15.436620 -14.084507 -38.520187 91 87 47 
15.367442 -13.953488 -38.161861 82 78 36 
15.441860 -13.953488 -38.161861 64 67 32 
15.516279 -13.953488 -38.161861 58 66 36 
15.590697 -13.953488 -38.161861 63 71 41 
15.812206 -14.084507 -38.520187 72 80 50 
16.114286 -14.285714 -39.070477 78 86 57 
16.346153 -14.423077 -39.446152 68 76 46 
16.423077 -14.423077 -39.446152 56 64 34 
9.450000 -18.850000 -51.279999 156 110 59 
9.550000 -18.850000 -51.279999 152 108 59 
