ply
        format ascii 1.0
        element vertex 94656
        property float x
        property float y
        property float z
        property uchar red
        property uchar green
        property uchar blue
        end_header
201.000000 -434.000000 53.864998 170 170 170
202.000000 -434.000000 53.864998 175 175 175
203.000000 -434.000000 53.466000 178 178 178
204.000000 -434.000000 53.266499 180 180 180
205.000000 -434.000000 53.066998 180 180 180
206.000000 -434.000000 52.867500 180 180 180
207.000000 -434.000000 52.667999 179 179 179
208.000000 -434.000000 52.468498 178 178 178
209.000000 -434.000000 52.468498 179 179 179
210.000000 -434.000000 52.667999 181 181 181
322.000000 -434.000000 51.670498 146 146 146
323.000000 -434.000000 51.470997 137 137 137
324.000000 -434.000000 51.271500 128 128 128
325.000000 -434.000000 51.071999 121 121 121
326.000000 -434.000000 50.872498 117 117 117
327.000000 -434.000000 50.673000 122 122 122
328.000000 -434.000000 50.473499 140 140 140
329.000000 -434.000000 50.673000 157 157 157
330.000000 -434.000000 50.872498 167 167 167
331.000000 -434.000000 51.071999 170 170 170
332.000000 -434.000000 50.673000 168 168 168
333.000000 -434.000000 50.872498 157 157 157
334.000000 -434.000000 51.271500 143 143 143
335.000000 -434.000000 51.271500 135 135 135
336.000000 -434.000000 51.271500 134 134 134
337.000000 -434.000000 51.271500 139 139 139
338.000000 -434.000000 51.271500 150 150 150
339.000000 -434.000000 51.670498 160 160 160
340.000000 -434.000000 51.869999 164 164 164
341.000000 -434.000000 51.071999 164 164 164
342.000000 -434.000000 50.673000 164 164 164
343.000000 -434.000000 50.673000 163 163 163
344.000000 -434.000000 50.872498 161 161 161
345.000000 -434.000000 51.470997 163 163 163
346.000000 -434.000000 51.869999 165 165 165
357.000000 -434.000000 56.657997 122 122 122
358.000000 -434.000000 56.657997 124 124 124
360.000000 -434.000000 56.657997 151 151 151
361.000000 -434.000000 56.657997 165 165 165
362.000000 -434.000000 56.657997 173 173 173
363.000000 -434.000000 56.857498 176 176 176
366.000000 -434.000000 57.056999 162 162 162
367.000000 -434.000000 57.455997 161 161 161
368.000000 -434.000000 57.256500 162 162 162
369.000000 -434.000000 57.455997 159 159 159
370.000000 -434.000000 57.855000 154 154 154
371.000000 -434.000000 57.655499 148 148 148
372.000000 -434.000000 57.655499 139 139 139
373.000000 -434.000000 57.855000 135 135 135
374.000000 -434.000000 58.054497 147 147 147
375.000000 -434.000000 58.054497 167 167 167
376.000000 -434.000000 58.054497 189 189 189
377.000000 -434.000000 57.855000 212 212 212
378.000000 -434.000000 57.455997 229 229 229
379.000000 -434.000000 57.256500 234 234 234
380.000000 -434.000000 57.056999 233 233 233
381.000000 -434.000000 57.056999 234 234 234
382.000000 -434.000000 57.256500 237 237 237
383.000000 -434.000000 57.256500 234 234 234
384.000000 -434.000000 57.256500 222 222 222
385.000000 -434.000000 57.056999 202 202 202
386.000000 -434.000000 57.056999 172 172 172
387.000000 -434.000000 57.256500 132 132 132
388.000000 -434.000000 57.256500 87 87 87
389.000000 -434.000000 57.455997 74 74 74
390.000000 -434.000000 57.655499 83 83 83
391.000000 -434.000000 57.855000 84 84 84
392.000000 -434.000000 58.054497 87 87 87
393.000000 -434.000000 58.253998 91 91 91
394.000000 -434.000000 58.253998 94 94 94
395.000000 -434.000000 58.453499 96 96 96
396.000000 -434.000000 58.453499 93 93 93
397.000000 -434.000000 58.653000 89 89 89
398.000000 -434.000000 58.453499 86 86 86
399.000000 -434.000000 58.653000 81 81 81
400.000000 -434.000000 58.653000 96 96 96
401.000000 -434.000000 58.852497 134 134 134
402.000000 -434.000000 58.653000 167 167 167
403.000000 -434.000000 58.852497 183 183 183
404.000000 -434.000000 58.852497 188 188 188
405.000000 -434.000000 59.051998 185 185 185
418.000000 -434.000000 61.445999 104 104 104
423.000000 -434.000000 62.243999 76 76 76
424.000000 -434.000000 62.443497 84 84 84
425.000000 -434.000000 62.642998 98 98 98
426.000000 -434.000000 63.042000 112 112 112
427.000000 -434.000000 63.241497 141 141 141
428.000000 -434.000000 63.241497 180 180 180
429.000000 -434.000000 63.440998 207 207 207
430.000000 -434.000000 63.839996 209 209 209
431.000000 -434.000000 64.238998 195 195 195
432.000000 -434.000000 64.238998 179 179 179
433.000000 -434.000000 64.438499 166 166 166
434.000000 -434.000000 65.036995 149 149 149
435.000000 -434.000000 65.036995 129 129 129
436.000000 -434.000000 65.036995 107 107 107
437.000000 -434.000000 65.036995 87 87 87
438.000000 -434.000000 65.036995 79 79 79
439.000000 -434.000000 65.635498 77 77 77
440.000000 -434.000000 65.834999 79 79 79
442.000000 -434.000000 66.034500 99 99 99
443.000000 -434.000000 66.234001 111 111 111
444.000000 -434.000000 66.433495 119 119 119
445.000000 -434.000000 66.832497 121 121 121
446.000000 -434.000000 67.431000 120 120 120
447.000000 -434.000000 68.029495 119 119 119
448.000000 -434.000000 68.228996 117 117 117
449.000000 -434.000000 68.029495 120 120 120
450.000000 -434.000000 68.029495 129 129 129
451.000000 -434.000000 68.228996 135 135 135
452.000000 -434.000000 68.627998 128 128 128
453.000000 -434.000000 68.827499 114 114 114
455.000000 -434.000000 69.027000 104 104 104
456.000000 -434.000000 69.027000 104 104 104
457.000000 -434.000000 69.425995 105 105 105
458.000000 -434.000000 69.824997 106 106 106
459.000000 -434.000000 69.824997 100 100 100
460.000000 -434.000000 70.024498 88 88 88
462.000000 -434.000000 70.623001 82 82 82
476.000000 -434.000000 70.024498 75 75 75
477.000000 -434.000000 70.623001 72 72 72
478.000000 -434.000000 70.623001 68 68 68
479.000000 -434.000000 70.223999 67 67 67
480.000000 -434.000000 70.423500 65 65 65
481.000000 -434.000000 70.024498 63 63 63
482.000000 -434.000000 70.623001 60 60 60
485.000000 -434.000000 69.625496 66 66 66
116.000000 -435.000000 65.834999 127 127 127
117.000000 -435.000000 65.834999 133 133 133
118.000000 -435.000000 65.635498 132 132 132
119.000000 -435.000000 65.834999 122 122 122
120.000000 -435.000000 65.834999 111 111 111
121.000000 -435.000000 65.635498 102 102 102
122.000000 -435.000000 65.635498 96 96 96
123.000000 -435.000000 65.635498 93 93 93
124.000000 -435.000000 65.834999 94 94 94
125.000000 -435.000000 65.435997 98 98 98
126.000000 -435.000000 65.435997 104 104 104
128.000000 -435.000000 64.837502 114 114 114
129.000000 -435.000000 64.837502 117 117 117
130.000000 -435.000000 64.039497 120 120 120
131.000000 -435.000000 63.839996 121 121 121
132.000000 -435.000000 64.039497 122 122 122
133.000000 -435.000000 63.640499 123 123 123
134.000000 -435.000000 63.640499 123 123 123
135.000000 -435.000000 64.039497 122 122 122
136.000000 -435.000000 63.839996 119 119 119
137.000000 -435.000000 63.440998 116 116 116
138.000000 -435.000000 63.440998 113 113 113
139.000000 -435.000000 63.440998 111 111 111
140.000000 -435.000000 63.241497 109 109 109
141.000000 -435.000000 63.440998 108 108 108
142.000000 -435.000000 63.440998 108 108 108
143.000000 -435.000000 63.042000 109 109 109
144.000000 -435.000000 63.042000 109 109 109
145.000000 -435.000000 63.241497 109 109 109
146.000000 -435.000000 63.241497 108 108 108
147.000000 -435.000000 63.241497 105 105 105
148.000000 -435.000000 63.241497 102 102 102
149.000000 -435.000000 63.042000 99 99 99
150.000000 -435.000000 63.042000 96 96 96
151.000000 -435.000000 63.241497 96 96 96
152.000000 -435.000000 63.241497 96 96 96
153.000000 -435.000000 63.042000 98 98 98
154.000000 -435.000000 62.842499 99 99 99
155.000000 -435.000000 63.042000 96 96 96
156.000000 -435.000000 63.042000 91 91 91
157.000000 -435.000000 63.042000 92 92 92
158.000000 -435.000000 63.042000 96 96 96
159.000000 -435.000000 63.241497 100 100 100
160.000000 -435.000000 63.241497 103 103 103
161.000000 -435.000000 63.440998 105 105 105
162.000000 -435.000000 63.440998 106 106 106
163.000000 -435.000000 63.440998 105 105 105
164.000000 -435.000000 63.440998 104 104 104
165.000000 -435.000000 63.640499 104 104 104
166.000000 -435.000000 63.241497 104 104 104
167.000000 -435.000000 63.241497 105 105 105
168.000000 -435.000000 63.042000 107 107 107
169.000000 -435.000000 63.042000 109 109 109
170.000000 -435.000000 63.241497 109 109 109
181.000000 -435.000000 53.466000 134 134 134
182.000000 -435.000000 53.266499 136 136 136
183.000000 -435.000000 53.466000 136 136 136
184.000000 -435.000000 53.665497 138 138 138
185.000000 -435.000000 53.665497 141 141 141
186.000000 -435.000000 53.466000 145 145 145
187.000000 -435.000000 53.466000 151 151 151
188.000000 -435.000000 53.466000 157 157 157
189.000000 -435.000000 53.665497 161 161 161
190.000000 -435.000000 53.665497 164 164 164
191.000000 -435.000000 53.665497 165 165 165
192.000000 -435.000000 53.864998 163 163 163
193.000000 -435.000000 53.665497 161 161 161
194.000000 -435.000000 53.665497 163 163 163
195.000000 -435.000000 53.665497 167 167 167
196.000000 -435.000000 53.466000 167 167 167
197.000000 -435.000000 53.466000 164 164 164
198.000000 -435.000000 53.466000 161 161 161
199.000000 -435.000000 53.864998 161 161 161
200.000000 -435.000000 53.864998 162 162 162
201.000000 -435.000000 53.864998 166 166 166
202.000000 -435.000000 53.864998 172 172 172
203.000000 -435.000000 53.665497 178 178 178
204.000000 -435.000000 53.266499 181 181 181
205.000000 -435.000000 53.066998 183 183 183
206.000000 -435.000000 52.867500 184 184 184
303.000000 -435.000000 146.432999 130 130 130
304.000000 -435.000000 146.033997 131 131 131
323.000000 -435.000000 51.670498 134 134 134
324.000000 -435.000000 51.470997 127 127 127
325.000000 -435.000000 51.271500 120 120 120
326.000000 -435.000000 50.872498 117 117 117
327.000000 -435.000000 50.673000 121 121 121
328.000000 -435.000000 50.673000 139 139 139
329.000000 -435.000000 50.673000 155 155 155
330.000000 -435.000000 50.673000 161 161 161
331.000000 -435.000000 50.872498 157 157 157
332.000000 -435.000000 50.673000 152 152 152
333.000000 -435.000000 50.872498 142 142 142
334.000000 -435.000000 51.071999 134 134 134
335.000000 -435.000000 51.071999 132 132 132
336.000000 -435.000000 51.071999 136 136 136
337.000000 -435.000000 51.071999 146 146 146
338.000000 -435.000000 51.071999 161 161 161
339.000000 -435.000000 51.470997 174 174 174
340.000000 -435.000000 51.670498 180 180 180
341.000000 -435.000000 51.071999 180 180 180
342.000000 -435.000000 50.473499 179 179 179
343.000000 -435.000000 50.673000 175 175 175
344.000000 -435.000000 50.673000 171 171 171
345.000000 -435.000000 51.071999 170 170 170
346.000000 -435.000000 51.670498 169 169 169
347.000000 -435.000000 51.670498 164 164 164
348.000000 -435.000000 52.069500 156 156 156
357.000000 -435.000000 56.857498 110 110 110
358.000000 -435.000000 56.857498 114 114 114
359.000000 -435.000000 56.857498 124 124 124
360.000000 -435.000000 56.857498 140 140 140
361.000000 -435.000000 56.857498 152 152 152
362.000000 -435.000000 56.857498 158 158 158
363.000000 -435.000000 57.056999 161 161 161
367.000000 -435.000000 57.855000 151 151 151
368.000000 -435.000000 57.655499 154 154 154
369.000000 -435.000000 57.855000 156 156 156
370.000000 -435.000000 58.253998 157 157 157
371.000000 -435.000000 58.253998 155 155 155
372.000000 -435.000000 58.054497 146 146 146
373.000000 -435.000000 58.253998 140 140 140
374.000000 -435.000000 58.453499 157 157 157
375.000000 -435.000000 58.253998 182 182 182
376.000000 -435.000000 58.253998 204 204 204
377.000000 -435.000000 58.054497 221 221 221
378.000000 -435.000000 57.855000 233 233 233
379.000000 -435.000000 57.455997 234 234 234
380.000000 -435.000000 57.455997 229 229 229
381.000000 -435.000000 57.455997 231 231 231
382.000000 -435.000000 57.455997 236 236 236
383.000000 -435.000000 57.455997 236 236 236
384.000000 -435.000000 57.455997 223 223 223
385.000000 -435.000000 57.256500 200 200 200
386.000000 -435.000000 57.256500 168 168 168
387.000000 -435.000000 57.655499 128 128 128
388.000000 -435.000000 57.455997 84 84 84
389.000000 -435.000000 57.855000 75 75 75
390.000000 -435.000000 57.855000 88 88 88
391.000000 -435.000000 58.054497 91 91 91
392.000000 -435.000000 58.453499 94 94 94
393.000000 -435.000000 58.453499 96 96 96
394.000000 -435.000000 58.453499 96 96 96
395.000000 -435.000000 58.653000 96 96 96
396.000000 -435.000000 58.653000 90 90 90
397.000000 -435.000000 58.653000 83 83 83
398.000000 -435.000000 58.653000 84 84 84
399.000000 -435.000000 58.852497 89 89 89
400.000000 -435.000000 58.852497 110 110 110
401.000000 -435.000000 59.051998 149 149 149
402.000000 -435.000000 58.852497 181 181 181
403.000000 -435.000000 59.051998 194 194 194
404.000000 -435.000000 59.051998 193 193 193
418.000000 -435.000000 61.844997 103 103 103
423.000000 -435.000000 62.443497 73 73 73
424.000000 -435.000000 62.443497 86 86 86
425.000000 -435.000000 62.842499 105 105 105
426.000000 -435.000000 63.042000 124 124 124
427.000000 -435.000000 63.241497 147 147 147
428.000000 -435.000000 63.241497 174 174 174
429.000000 -435.000000 63.440998 192 192 192
430.000000 -435.000000 63.839996 190 190 190
431.000000 -435.000000 64.238998 173 173 173
432.000000 -435.000000 64.238998 155 155 155
433.000000 -435.000000 64.438499 142 142 142
434.000000 -435.000000 65.036995 126 126 126
435.000000 -435.000000 64.837502 109 109 109
436.000000 -435.000000 64.837502 93 93 93
437.000000 -435.000000 65.036995 80 80 80
438.000000 -435.000000 65.036995 75 75 75
439.000000 -435.000000 65.435997 78 78 78
440.000000 -435.000000 65.635498 86 86 86
442.000000 -435.000000 65.834999 109 109 109
443.000000 -435.000000 66.034500 121 121 121
444.000000 -435.000000 66.034500 128 128 128
445.000000 -435.000000 66.433495 127 127 127
446.000000 -435.000000 67.031998 122 122 122
447.000000 -435.000000 68.029495 117 117 117
448.000000 -435.000000 68.029495 110 110 110
449.000000 -435.000000 67.830002 111 111 111
450.000000 -435.000000 67.830002 126 126 126
451.000000 -435.000000 68.228996 135 135 135
452.000000 -435.000000 68.627998 129 129 129
456.000000 -435.000000 69.027000 106 106 106
457.000000 -435.000000 69.625496 105 105 105
458.000000 -435.000000 70.024498 103 103 103
459.000000 -435.000000 70.024498 97 97 97
476.000000 -435.000000 70.024498 74 74 74
477.000000 -435.000000 70.623001 70 70 70
478.000000 -435.000000 70.423500 67 67 67
479.000000 -435.000000 70.024498 67 67 67
480.000000 -435.000000 70.024498 68 68 68
482.000000 -435.000000 70.223999 65 65 65
502.000000 -435.000000 10.174500 62 62 62
503.000000 -435.000000 10.374000 63 63 63
504.000000 -435.000000 10.374000 67 67 67
505.000000 -435.000000 10.374000 67 67 67
506.000000 -435.000000 10.374000 65 65 65
507.000000 -435.000000 10.374000 61 61 61
509.000000 -435.000000 10.374000 55 55 55
511.000000 -435.000000 10.573500 61 61 61
512.000000 -435.000000 10.573500 65 65 65
513.000000 -435.000000 10.972500 67 67 67
116.000000 -436.000000 65.834999 119 119 119
117.000000 -436.000000 66.034500 129 129 129
118.000000 -436.000000 65.834999 130 130 130
119.000000 -436.000000 65.834999 123 123 123
120.000000 -436.000000 66.034500 114 114 114
121.000000 -436.000000 65.834999 107 107 107
122.000000 -436.000000 65.635498 101 101 101
123.000000 -436.000000 65.834999 97 97 97
124.000000 -436.000000 65.834999 96 96 96
126.000000 -436.000000 65.435997 102 102 102
128.000000 -436.000000 64.837502 113 113 113
129.000000 -436.000000 64.837502 118 118 118
130.000000 -436.000000 64.039497 121 121 121
131.000000 -436.000000 63.839996 123 123 123
132.000000 -436.000000 64.039497 123 123 123
133.000000 -436.000000 63.640499 123 123 123
134.000000 -436.000000 63.839996 123 123 123
135.000000 -436.000000 64.238998 121 121 121
136.000000 -436.000000 64.039497 119 119 119
137.000000 -436.000000 63.640499 116 116 116
138.000000 -436.000000 63.640499 113 113 113
139.000000 -436.000000 63.839996 112 112 112
140.000000 -436.000000 63.640499 109 109 109
141.000000 -436.000000 63.640499 108 108 108
142.000000 -436.000000 63.640499 108 108 108
143.000000 -436.000000 63.241497 108 108 108
144.000000 -436.000000 63.241497 109 109 109
145.000000 -436.000000 63.440998 109 109 109
146.000000 -436.000000 63.440998 108 108 108
147.000000 -436.000000 63.440998 105 105 105
148.000000 -436.000000 63.440998 102 102 102
149.000000 -436.000000 63.241497 99 99 99
150.000000 -436.000000 63.241497 97 97 97
151.000000 -436.000000 63.241497 96 96 96
152.000000 -436.000000 63.241497 97 97 97
153.000000 -436.000000 63.241497 98 98 98
154.000000 -436.000000 63.042000 99 99 99
155.000000 -436.000000 63.042000 97 97 97
156.000000 -436.000000 63.241497 92 92 92
157.000000 -436.000000 63.042000 92 92 92
158.000000 -436.000000 63.241497 97 97 97
159.000000 -436.000000 63.440998 101 101 101
160.000000 -436.000000 63.440998 103 103 103
161.000000 -436.000000 63.640499 105 105 105
162.000000 -436.000000 63.640499 106 106 106
163.000000 -436.000000 63.640499 105 105 105
164.000000 -436.000000 63.839996 104 104 104
165.000000 -436.000000 63.839996 104 104 104
166.000000 -436.000000 63.640499 104 104 104
167.000000 -436.000000 63.440998 105 105 105
168.000000 -436.000000 63.440998 107 107 107
169.000000 -436.000000 63.241497 108 108 108
170.000000 -436.000000 63.440998 108 108 108
182.000000 -436.000000 53.266499 132 132 132
183.000000 -436.000000 53.266499 132 132 132
184.000000 -436.000000 53.466000 135 135 135
185.000000 -436.000000 53.466000 137 137 137
186.000000 -436.000000 53.266499 142 142 142
187.000000 -436.000000 53.466000 147 147 147
188.000000 -436.000000 53.466000 153 153 153
189.000000 -436.000000 53.665497 159 159 159
190.000000 -436.000000 53.864998 161 161 161
191.000000 -436.000000 53.665497 163 163 163
192.000000 -436.000000 53.864998 162 162 162
193.000000 -436.000000 53.864998 161 161 161
194.000000 -436.000000 53.864998 162 162 162
195.000000 -436.000000 53.864998 164 164 164
196.000000 -436.000000 53.665497 162 162 162
197.000000 -436.000000 53.466000 159 159 159
198.000000 -436.000000 53.466000 156 156 156
199.000000 -436.000000 53.864998 155 155 155
200.000000 -436.000000 53.864998 155 155 155
201.000000 -436.000000 54.064499 160 160 160
202.000000 -436.000000 54.064499 167 167 167
203.000000 -436.000000 53.665497 174 174 174
204.000000 -436.000000 53.466000 180 180 180
205.000000 -436.000000 53.066998 185 185 185
279.000000 -436.000000 35.112000 136 136 136
280.000000 -436.000000 35.510998 143 143 143
293.000000 -436.000000 147.430496 44 44 44
294.000000 -436.000000 147.430496 80 80 80
295.000000 -436.000000 147.629990 119 119 119
296.000000 -436.000000 147.829498 139 139 139
302.000000 -436.000000 146.233490 129 129 129
303.000000 -436.000000 145.834503 128 128 128
304.000000 -436.000000 145.634995 128 128 128
311.000000 -436.000000 144.039001 143 143 143
312.000000 -436.000000 143.041489 147 147 147
313.000000 -436.000000 142.841995 150 150 150
314.000000 -436.000000 142.841995 153 153 153
325.000000 -436.000000 51.470997 120 120 120
326.000000 -436.000000 51.071999 117 117 117
327.000000 -436.000000 50.872498 120 120 120
328.000000 -436.000000 50.673000 136 136 136
329.000000 -436.000000 50.673000 151 151 151
330.000000 -436.000000 50.872498 153 153 153
331.000000 -436.000000 50.872498 144 144 144
332.000000 -436.000000 50.673000 136 136 136
333.000000 -436.000000 50.673000 130 130 130
334.000000 -436.000000 50.872498 129 129 129
335.000000 -436.000000 50.872498 135 135 135
336.000000 -436.000000 50.872498 144 144 144
337.000000 -436.000000 51.071999 160 160 160
338.000000 -436.000000 51.071999 178 178 178
339.000000 -436.000000 51.470997 191 191 191
340.000000 -436.000000 51.670498 197 197 197
341.000000 -436.000000 50.872498 195 195 195
342.000000 -436.000000 50.473499 192 192 192
343.000000 -436.000000 50.473499 185 185 185
344.000000 -436.000000 50.473499 178 178 178
345.000000 -436.000000 50.872498 172 172 172
346.000000 -436.000000 51.470997 168 168 168
347.000000 -436.000000 51.470997 160 160 160
348.000000 -436.000000 52.069500 152 152 152
349.000000 -436.000000 52.268997 146 146 146
356.000000 -436.000000 56.258999 104 104 104
357.000000 -436.000000 57.056999 102 102 102
358.000000 -436.000000 57.056999 108 108 108
359.000000 -436.000000 57.056999 118 118 118
360.000000 -436.000000 57.056999 133 133 133
361.000000 -436.000000 57.256500 145 145 145
362.000000 -436.000000 57.256500 149 149 149
363.000000 -436.000000 57.455997 149 149 149
367.000000 -436.000000 58.253998 143 143 143
368.000000 -436.000000 58.054497 149 149 149
369.000000 -436.000000 58.253998 155 155 155
370.000000 -436.000000 58.453499 160 160 160
371.000000 -436.000000 58.453499 161 161 161
372.000000 -436.000000 58.453499 150 150 150
373.000000 -436.000000 58.453499 144 144 144
374.000000 -436.000000 58.653000 164 164 164
375.000000 -436.000000 58.653000 192 192 192
376.000000 -436.000000 58.653000 213 213 213
377.000000 -436.000000 58.453499 225 225 225
378.000000 -436.000000 58.253998 232 232 232
379.000000 -436.000000 57.855000 229 229 229
380.000000 -436.000000 57.855000 220 220 220
381.000000 -436.000000 57.655499 220 220 220
382.000000 -436.000000 57.855000 229 229 229
383.000000 -436.000000 57.855000 229 229 229
384.000000 -436.000000 57.655499 215 215 215
385.000000 -436.000000 57.655499 191 191 191
386.000000 -436.000000 57.655499 159 159 159
387.000000 -436.000000 57.855000 121 121 121
388.000000 -436.000000 57.855000 81 81 81
389.000000 -436.000000 58.054497 78 78 78
390.000000 -436.000000 58.253998 94 94 94
391.000000 -436.000000 58.453499 97 97 97
392.000000 -436.000000 58.653000 99 99 99
393.000000 -436.000000 58.653000 98 98 98
394.000000 -436.000000 58.653000 96 96 96
395.000000 -436.000000 58.653000 93 93 93
396.000000 -436.000000 58.852497 85 85 85
397.000000 -436.000000 58.852497 76 76 76
398.000000 -436.000000 58.852497 86 86 86
399.000000 -436.000000 59.051998 104 104 104
400.000000 -436.000000 59.051998 130 130 130
401.000000 -436.000000 59.051998 165 165 165
402.000000 -436.000000 59.051998 193 193 193
403.000000 -436.000000 59.251499 202 202 202
418.000000 -436.000000 62.044498 102 102 102
422.000000 -436.000000 62.443497 66 66 66
423.000000 -436.000000 62.443497 71 71 71
424.000000 -436.000000 62.443497 87 87 87
425.000000 -436.000000 62.642998 109 109 109
426.000000 -436.000000 63.042000 130 130 130
427.000000 -436.000000 63.042000 149 149 149
428.000000 -436.000000 63.042000 164 164 164
429.000000 -436.000000 63.440998 174 174 174
430.000000 -436.000000 63.640499 168 168 168
431.000000 -436.000000 64.039497 152 152 152
432.000000 -436.000000 64.039497 135 135 135
433.000000 -436.000000 64.238998 122 122 122
434.000000 -436.000000 64.837502 109 109 109
435.000000 -436.000000 64.638000 96 96 96
436.000000 -436.000000 64.638000 85 85 85
437.000000 -436.000000 64.638000 78 78 78
438.000000 -436.000000 64.837502 76 76 76
439.000000 -436.000000 65.435997 82 82 82
443.000000 -436.000000 65.635498 129 129 129
444.000000 -436.000000 65.834999 134 134 134
445.000000 -436.000000 66.234001 129 129 129
446.000000 -436.000000 66.832497 122 122 122
447.000000 -436.000000 67.830002 115 115 115
448.000000 -436.000000 68.029495 108 108 108
449.000000 -436.000000 67.630501 114 114 114
450.000000 -436.000000 67.830002 134 134 134
451.000000 -436.000000 68.228996 147 147 147
452.000000 -436.000000 68.627998 139 139 139
455.000000 -436.000000 69.027000 106 106 106
456.000000 -436.000000 69.226501 107 107 107
457.000000 -436.000000 69.625496 104 104 104
458.000000 -436.000000 70.223999 101 101 101
476.000000 -436.000000 70.223999 71 71 71
477.000000 -436.000000 70.822495 67 67 67
478.000000 -436.000000 70.623001 65 65 65
501.000000 -436.000000 9.974999 64 64 64
502.000000 -436.000000 10.374000 61 61 61
503.000000 -436.000000 10.374000 62 62 62
504.000000 -436.000000 10.374000 67 67 67
505.000000 -436.000000 10.374000 70 70 70
506.000000 -436.000000 10.374000 67 67 67
507.000000 -436.000000 10.374000 62 62 62
508.000000 -436.000000 10.573500 58 58 58
509.000000 -436.000000 10.374000 56 56 56
510.000000 -436.000000 10.573500 56 56 56
511.000000 -436.000000 10.573500 60 60 60
512.000000 -436.000000 10.773000 63 63 63
513.000000 -436.000000 10.972500 65 65 65
115.000000 -437.000000 66.034500 113 113 113
116.000000 -437.000000 66.034500 119 119 119
117.000000 -437.000000 66.034500 130 130 130
118.000000 -437.000000 65.834999 133 133 133
119.000000 -437.000000 65.834999 127 127 127
120.000000 -437.000000 66.034500 120 120 120
121.000000 -437.000000 65.834999 114 114 114
122.000000 -437.000000 65.635498 108 108 108
123.000000 -437.000000 65.834999 102 102 102
124.000000 -437.000000 65.834999 99 99 99
126.000000 -437.000000 65.435997 102 102 102
127.000000 -437.000000 65.435997 107 107 107
128.000000 -437.000000 64.837502 112 112 112
129.000000 -437.000000 64.837502 116 116 116
130.000000 -437.000000 64.039497 120 120 120
131.000000 -437.000000 63.839996 122 122 122
132.000000 -437.000000 64.039497 122 122 122
133.000000 -437.000000 63.839996 122 122 122
134.000000 -437.000000 63.839996 120 120 120
135.000000 -437.000000 64.238998 118 118 118
136.000000 -437.000000 64.238998 117 117 117
137.000000 -437.000000 64.039497 116 116 116
138.000000 -437.000000 63.839996 114 114 114
139.000000 -437.000000 63.839996 112 112 112
140.000000 -437.000000 63.839996 110 110 110
141.000000 -437.000000 63.839996 108 108 108
142.000000 -437.000000 63.839996 108 108 108
143.000000 -437.000000 63.440998 109 109 109
144.000000 -437.000000 63.440998 110 110 110
145.000000 -437.000000 63.640499 110 110 110
146.000000 -437.000000 63.640499 108 108 108
147.000000 -437.000000 63.640499 105 105 105
148.000000 -437.000000 63.440998 102 102 102
149.000000 -437.000000 63.241497 99 99 99
150.000000 -437.000000 63.241497 98 98 98
151.000000 -437.000000 63.241497 97 97 97
152.000000 -437.000000 63.440998 97 97 97
153.000000 -437.000000 63.241497 99 99 99
154.000000 -437.000000 63.042000 100 100 100
155.000000 -437.000000 63.241497 97 97 97
156.000000 -437.000000 63.241497 93 93 93
157.000000 -437.000000 63.241497 93 93 93
158.000000 -437.000000 63.241497 97 97 97
159.000000 -437.000000 63.440998 101 101 101
160.000000 -437.000000 63.640499 103 103 103
161.000000 -437.000000 63.640499 105 105 105
162.000000 -437.000000 64.039497 106 106 106
163.000000 -437.000000 64.039497 105 105 105
164.000000 -437.000000 64.039497 104 104 104
165.000000 -437.000000 64.238998 103 103 103
166.000000 -437.000000 63.839996 103 103 103
167.000000 -437.000000 63.839996 104 104 104
168.000000 -437.000000 63.839996 106 106 106
169.000000 -437.000000 63.640499 108 108 108
182.000000 -437.000000 53.066998 128 128 128
183.000000 -437.000000 53.266499 128 128 128
184.000000 -437.000000 53.466000 131 131 131
185.000000 -437.000000 53.466000 134 134 134
186.000000 -437.000000 53.266499 139 139 139
187.000000 -437.000000 53.266499 145 145 145
188.000000 -437.000000 53.466000 151 151 151
189.000000 -437.000000 53.665497 157 157 157
190.000000 -437.000000 53.864998 159 159 159
192.000000 -437.000000 54.064499 163 163 163
193.000000 -437.000000 54.064499 162 162 162
194.000000 -437.000000 54.064499 162 162 162
195.000000 -437.000000 54.064499 163 163 163
196.000000 -437.000000 53.864998 160 160 160
197.000000 -437.000000 53.665497 155 155 155
198.000000 -437.000000 53.665497 151 151 151
199.000000 -437.000000 54.064499 149 149 149
200.000000 -437.000000 54.064499 148 148 148
201.000000 -437.000000 54.064499 153 153 153
202.000000 -437.000000 54.064499 159 159 159
257.000000 -437.000000 36.308998 210 210 210
269.000000 -437.000000 34.114498 132 132 132
270.000000 -437.000000 34.513500 132 132 132
274.000000 -437.000000 34.712997 131 131 131
275.000000 -437.000000 34.313999 129 129 129
276.000000 -437.000000 34.114498 127 127 127
277.000000 -437.000000 34.712997 126 126 126
279.000000 -437.000000 34.912498 132 132 132
280.000000 -437.000000 35.311501 139 139 139
281.000000 -437.000000 35.910000 144 144 144
293.000000 -437.000000 147.231003 50 50 50
294.000000 -437.000000 147.231003 75 75 75
295.000000 -437.000000 147.430496 111 111 111
296.000000 -437.000000 147.430496 131 131 131
297.000000 -437.000000 148.028992 145 145 145
301.000000 -437.000000 146.233490 131 131 131
302.000000 -437.000000 145.834503 130 130 130
303.000000 -437.000000 145.634995 129 129 129
308.000000 -437.000000 144.836990 127 127 127
309.000000 -437.000000 144.438004 132 132 132
310.000000 -437.000000 144.039001 138 138 138
311.000000 -437.000000 143.839493 145 145 145
312.000000 -437.000000 142.841995 149 149 149
313.000000 -437.000000 142.642502 152 152 152
314.000000 -437.000000 142.642502 155 155 155
326.000000 -437.000000 51.470997 117 117 117
327.000000 -437.000000 51.071999 119 119 119
328.000000 -437.000000 50.872498 133 133 133
329.000000 -437.000000 50.872498 146 146 146
330.000000 -437.000000 50.872498 145 145 145
331.000000 -437.000000 50.872498 134 134 134
332.000000 -437.000000 50.473499 124 124 124
333.000000 -437.000000 50.673000 123 123 123
334.000000 -437.000000 50.872498 127 127 127
335.000000 -437.000000 50.673000 140 140 140
336.000000 -437.000000 50.872498 155 155 155
337.000000 -437.000000 50.872498 174 174 174
338.000000 -437.000000 50.872498 193 193 193
339.000000 -437.000000 51.271500 208 208 208
340.000000 -437.000000 51.470997 212 212 212
341.000000 -437.000000 50.872498 208 208 208
342.000000 -437.000000 50.473499 201 201 201
343.000000 -437.000000 50.273998 190 190 190
344.000000 -437.000000 50.473499 179 179 179
345.000000 -437.000000 50.872498 171 171 171
346.000000 -437.000000 51.271500 164 164 164
347.000000 -437.000000 51.271500 155 155 155
348.000000 -437.000000 51.869999 146 146 146
356.000000 -437.000000 56.657997 97 97 97
357.000000 -437.000000 57.455997 98 98 98
358.000000 -437.000000 57.655499 106 106 106
359.000000 -437.000000 57.455997 118 118 118
360.000000 -437.000000 57.655499 132 132 132
368.000000 -437.000000 58.453499 146 146 146
369.000000 -437.000000 58.453499 155 155 155
370.000000 -437.000000 58.852497 164 164 164
371.000000 -437.000000 58.852497 166 166 166
372.000000 -437.000000 58.653000 154 154 154
373.000000 -437.000000 58.653000 145 145 145
374.000000 -437.000000 58.852497 167 167 167
375.000000 -437.000000 58.852497 197 197 197
376.000000 -437.000000 58.852497 216 216 216
377.000000 -437.000000 58.653000 224 224 224
378.000000 -437.000000 58.453499 225 225 225
379.000000 -437.000000 58.054497 218 218 218
380.000000 -437.000000 58.054497 205 205 205
381.000000 -437.000000 58.054497 203 203 203
382.000000 -437.000000 58.054497 213 213 213
383.000000 -437.000000 58.054497 216 216 216
384.000000 -437.000000 57.855000 201 201 201
385.000000 -437.000000 57.855000 177 177 177
386.000000 -437.000000 57.855000 147 147 147
387.000000 -437.000000 58.054497 112 112 112
388.000000 -437.000000 58.054497 78 78 78
389.000000 -437.000000 58.253998 82 82 82
390.000000 -437.000000 58.453499 99 99 99
391.000000 -437.000000 58.653000 102 102 102
392.000000 -437.000000 58.852497 102 102 102
393.000000 -437.000000 58.852497 100 100 100
394.000000 -437.000000 58.852497 94 94 94
395.000000 -437.000000 58.852497 88 88 88
396.000000 -437.000000 59.051998 79 79 79
397.000000 -437.000000 59.051998 71 71 71
398.000000 -437.000000 59.051998 90 90 90
399.000000 -437.000000 59.051998 120 120 120
400.000000 -437.000000 59.251499 149 149 149
401.000000 -437.000000 59.251499 180 180 180
402.000000 -437.000000 59.251499 203 203 203
403.000000 -437.000000 59.650497 206 206 206
416.000000 -437.000000 62.243999 107 107 107
417.000000 -437.000000 62.443497 104 104 104
418.000000 -437.000000 62.243999 101 101 101
422.000000 -437.000000 62.443497 65 65 65
423.000000 -437.000000 62.443497 71 71 71
424.000000 -437.000000 62.443497 87 87 87
425.000000 -437.000000 62.842499 109 109 109
426.000000 -437.000000 62.842499 131 131 131
427.000000 -437.000000 63.042000 146 146 146
428.000000 -437.000000 63.042000 152 152 152
429.000000 -437.000000 63.440998 154 154 154
430.000000 -437.000000 63.440998 147 147 147
431.000000 -437.000000 63.839996 134 134 134
432.000000 -437.000000 63.839996 121 121 121
433.000000 -437.000000 64.238998 111 111 111
434.000000 -437.000000 64.638000 102 102 102
435.000000 -437.000000 64.438499 93 93 93
436.000000 -437.000000 64.438499 86 86 86
437.000000 -437.000000 64.438499 82 82 82
438.000000 -437.000000 64.638000 81 81 81
439.000000 -437.000000 65.435997 88 88 88
441.000000 -437.000000 65.236496 115 115 115
444.000000 -437.000000 65.635498 137 137 137
445.000000 -437.000000 66.034500 129 129 129
446.000000 -437.000000 66.832497 119 119 119
447.000000 -437.000000 67.830002 114 114 114
448.000000 -437.000000 67.830002 112 112 112
449.000000 -437.000000 67.431000 123 123 123
450.000000 -437.000000 67.630501 148 148 148
451.000000 -437.000000 68.029495 164 164 164
452.000000 -437.000000 68.627998 154 154 154
455.000000 -437.000000 69.027000 107 107 107
456.000000 -437.000000 69.425995 106 106 106
457.000000 -437.000000 70.024498 103 103 103
458.000000 -437.000000 70.623001 100 100 100
477.000000 -437.000000 71.021996 63 63 63
478.000000 -437.000000 70.822495 62 62 62
497.000000 -437.000000 10.573500 100 100 100
498.000000 -437.000000 10.773000 99 99 99
500.000000 -437.000000 9.974999 69 69 69
501.000000 -437.000000 10.174500 60 60 60
502.000000 -437.000000 10.374000 54 54 54
503.000000 -437.000000 10.573500 57 57 57
504.000000 -437.000000 10.573500 64 64 64
505.000000 -437.000000 10.573500 66 66 66
506.000000 -437.000000 10.573500 63 63 63
507.000000 -437.000000 10.573500 57 57 57
508.000000 -437.000000 10.573500 54 54 54
509.000000 -437.000000 10.374000 51 51 51
510.000000 -437.000000 10.573500 50 50 50
511.000000 -437.000000 10.573500 51 51 51
512.000000 -437.000000 10.773000 53 53 53
513.000000 -437.000000 10.972500 56 56 56
514.000000 -437.000000 11.371500 57 57 57
517.000000 -437.000000 11.172000 66 66 66
115.000000 -438.000000 66.234001 111 111 111
116.000000 -438.000000 66.034500 118 118 118
117.000000 -438.000000 66.034500 129 129 129
118.000000 -438.000000 66.034500 133 133 133
119.000000 -438.000000 66.234001 129 129 129
120.000000 -438.000000 66.234001 124 124 124
121.000000 -438.000000 65.834999 119 119 119
122.000000 -438.000000 65.834999 113 113 113
123.000000 -438.000000 65.834999 107 107 107
124.000000 -438.000000 66.034500 102 102 102
125.000000 -438.000000 65.635498 100 100 100
126.000000 -438.000000 65.435997 102 102 102
128.000000 -438.000000 65.036995 110 110 110
129.000000 -438.000000 65.036995 116 116 116
130.000000 -438.000000 64.238998 119 119 119
131.000000 -438.000000 64.039497 121 121 121
132.000000 -438.000000 64.238998 122 122 122
133.000000 -438.000000 64.039497 121 121 121
134.000000 -438.000000 64.238998 118 118 118
135.000000 -438.000000 64.438499 116 116 116
136.000000 -438.000000 64.438499 117 117 117
137.000000 -438.000000 64.039497 116 116 116
138.000000 -438.000000 64.039497 114 114 114
139.000000 -438.000000 64.039497 112 112 112
140.000000 -438.000000 64.039497 110 110 110
141.000000 -438.000000 64.039497 109 109 109
142.000000 -438.000000 64.039497 108 108 108
143.000000 -438.000000 63.440998 109 109 109
144.000000 -438.000000 63.440998 110 110 110
145.000000 -438.000000 63.640499 109 109 109
146.000000 -438.000000 63.640499 108 108 108
147.000000 -438.000000 63.640499 105 105 105
148.000000 -438.000000 63.440998 102 102 102
149.000000 -438.000000 63.241497 100 100 100
150.000000 -438.000000 63.241497 98 98 98
151.000000 -438.000000 63.241497 97 97 97
152.000000 -438.000000 63.440998 97 97 97
153.000000 -438.000000 63.241497 99 99 99
154.000000 -438.000000 63.042000 100 100 100
155.000000 -438.000000 63.241497 97 97 97
156.000000 -438.000000 63.241497 94 94 94
157.000000 -438.000000 63.241497 94 94 94
158.000000 -438.000000 63.440998 98 98 98
159.000000 -438.000000 63.640499 102 102 102
160.000000 -438.000000 63.640499 103 103 103
161.000000 -438.000000 63.839996 105 105 105
162.000000 -438.000000 64.238998 106 106 106
163.000000 -438.000000 64.238998 104 104 104
164.000000 -438.000000 64.438499 104 104 104
165.000000 -438.000000 64.438499 103 103 103
166.000000 -438.000000 64.238998 103 103 103
167.000000 -438.000000 64.238998 104 104 104
183.000000 -438.000000 53.066998 124 124 124
184.000000 -438.000000 53.266499 127 127 127
185.000000 -438.000000 53.266499 130 130 130
186.000000 -438.000000 53.066998 136 136 136
187.000000 -438.000000 53.266499 142 142 142
188.000000 -438.000000 53.466000 148 148 148
189.000000 -438.000000 53.665497 154 154 154
190.000000 -438.000000 54.064499 158 158 158
192.000000 -438.000000 54.064499 163 163 163
193.000000 -438.000000 54.264000 163 163 163
194.000000 -438.000000 54.264000 163 163 163
195.000000 -438.000000 54.264000 162 162 162
198.000000 -438.000000 53.665497 148 148 148
199.000000 -438.000000 54.064499 144 144 144
269.000000 -438.000000 33.715500 125 125 125
270.000000 -438.000000 33.915001 125 125 125
271.000000 -438.000000 34.313999 125 125 125
272.000000 -438.000000 34.513500 126 126 126
274.000000 -438.000000 34.313999 128 128 128
275.000000 -438.000000 34.114498 127 127 127
276.000000 -438.000000 33.915001 126 126 126
277.000000 -438.000000 34.513500 124 124 124
278.000000 -438.000000 34.912498 124 124 124
279.000000 -438.000000 34.912498 128 128 128
280.000000 -438.000000 35.311501 136 136 136
281.000000 -438.000000 35.710499 142 142 142
282.000000 -438.000000 35.910000 144 144 144
284.000000 -438.000000 35.910000 152 152 152
293.000000 -438.000000 146.832001 55 55 55
294.000000 -438.000000 146.832001 70 70 70
295.000000 -438.000000 147.031494 102 102 102
296.000000 -438.000000 147.031494 121 121 121
297.000000 -438.000000 147.629990 136 136 136
298.000000 -438.000000 147.629990 144 144 144
299.000000 -438.000000 147.629990 140 140 140
300.000000 -438.000000 147.231003 134 134 134
301.000000 -438.000000 145.834503 132 132 132
302.000000 -438.000000 145.435501 132 132 132
306.000000 -438.000000 145.036499 128 128 128
307.000000 -438.000000 145.036499 124 124 124
308.000000 -438.000000 144.637497 125 125 125
309.000000 -438.000000 144.039001 131 131 131
310.000000 -438.000000 143.639999 136 136 136
311.000000 -438.000000 143.440491 143 143 143
312.000000 -438.000000 142.642502 148 148 148
313.000000 -438.000000 142.642502 151 151 151
314.000000 -438.000000 142.442993 151 151 151
315.000000 -438.000000 142.642502 152 152 152
326.000000 -438.000000 51.670498 117 117 117
327.000000 -438.000000 51.271500 117 117 117
328.000000 -438.000000 50.872498 128 128 128
329.000000 -438.000000 50.872498 140 140 140
330.000000 -438.000000 50.673000 139 139 139
331.000000 -438.000000 50.673000 127 127 127
332.000000 -438.000000 50.473499 121 121 121
333.000000 -438.000000 50.473499 125 125 125
334.000000 -438.000000 50.673000 134 134 134
335.000000 -438.000000 50.473499 152 152 152
336.000000 -438.000000 50.673000 170 170 170
337.000000 -438.000000 50.872498 190 190 190
338.000000 -438.000000 50.872498 207 207 207
339.000000 -438.000000 51.271500 219 219 219
340.000000 -438.000000 51.271500 220 220 220
341.000000 -438.000000 50.673000 212 212 212
342.000000 -438.000000 50.273998 202 202 202
343.000000 -438.000000 50.273998 189 189 189
344.000000 -438.000000 50.273998 176 176 176
345.000000 -438.000000 50.673000 164 164 164
346.000000 -438.000000 51.271500 157 157 157
347.000000 -438.000000 51.271500 147 147 147
348.000000 -438.000000 52.069500 140 140 140
357.000000 -438.000000 57.855000 101 101 101
358.000000 -438.000000 58.054497 111 111 111
369.000000 -438.000000 58.653000 160 160 160
370.000000 -438.000000 59.051998 172 172 172
371.000000 -438.000000 59.051998 177 177 177
372.000000 -438.000000 58.852497 162 162 162
373.000000 -438.000000 59.051998 150 150 150
374.000000 -438.000000 59.051998 172 172 172
375.000000 -438.000000 59.051998 204 204 204
376.000000 -438.000000 59.051998 221 221 221
377.000000 -438.000000 59.051998 223 223 223
378.000000 -438.000000 58.852497 220 220 220
379.000000 -438.000000 58.453499 208 208 208
380.000000 -438.000000 58.253998 190 190 190
381.000000 -438.000000 58.253998 184 184 184
382.000000 -438.000000 58.253998 194 194 194
383.000000 -438.000000 58.253998 198 198 198
384.000000 -438.000000 58.253998 184 184 184
385.000000 -438.000000 58.054497 162 162 162
386.000000 -438.000000 58.054497 134 134 134
387.000000 -438.000000 58.253998 104 104 104
388.000000 -438.000000 58.253998 78 78 78
389.000000 -438.000000 58.453499 84 84 84
390.000000 -438.000000 58.653000 100 100 100
391.000000 -438.000000 58.852497 103 103 103
392.000000 -438.000000 59.051998 102 102 102
393.000000 -438.000000 58.852497 99 99 99
394.000000 -438.000000 58.852497 92 92 92
395.000000 -438.000000 59.051998 85 85 85
396.000000 -438.000000 59.051998 77 77 77
397.000000 -438.000000 59.051998 72 72 72
398.000000 -438.000000 59.251499 100 100 100
399.000000 -438.000000 59.251499 139 139 139
400.000000 -438.000000 59.451000 169 169 169
401.000000 -438.000000 59.451000 191 191 191
402.000000 -438.000000 59.650497 204 204 204
403.000000 -438.000000 59.849998 203 203 203
416.000000 -438.000000 62.443497 110 110 110
417.000000 -438.000000 62.443497 106 106 106
418.000000 -438.000000 62.243999 102 102 102
421.000000 -438.000000 62.642998 77 77 77
422.000000 -438.000000 62.642998 67 67 67
423.000000 -438.000000 62.443497 72 72 72
424.000000 -438.000000 62.443497 86 86 86
425.000000 -438.000000 62.842499 105 105 105
426.000000 -438.000000 63.042000 126 126 126
427.000000 -438.000000 63.042000 138 138 138
428.000000 -438.000000 63.042000 138 138 138
429.000000 -438.000000 63.440998 133 133 133
430.000000 -438.000000 63.440998 127 127 127
431.000000 -438.000000 63.839996 118 118 118
432.000000 -438.000000 63.640499 109 109 109
433.000000 -438.000000 64.039497 104 104 104
434.000000 -438.000000 64.638000 98 98 98
435.000000 -438.000000 64.438499 92 92 92
436.000000 -438.000000 64.238998 88 88 88
437.000000 -438.000000 64.438499 87 87 87
438.000000 -438.000000 64.638000 87 87 87
439.000000 -438.000000 65.236496 94 94 94
441.000000 -438.000000 65.036995 121 121 121
444.000000 -438.000000 65.635498 135 135 135
445.000000 -438.000000 66.034500 123 123 123
446.000000 -438.000000 66.632996 110 110 110
447.000000 -438.000000 67.630501 112 112 112
448.000000 -438.000000 67.630501 121 121 121
449.000000 -438.000000 67.231499 140 140 140
450.000000 -438.000000 67.431000 165 165 165
451.000000 -438.000000 68.029495 180 180 180
452.000000 -438.000000 68.627998 168 168 168
453.000000 -438.000000 68.827499 135 135 135
454.000000 -438.000000 69.027000 109 109 109
455.000000 -438.000000 69.027000 105 105 105
456.000000 -438.000000 69.425995 102 102 102
457.000000 -438.000000 70.024498 99 99 99
458.000000 -438.000000 70.623001 99 99 99
497.000000 -438.000000 10.573500 103 103 103
498.000000 -438.000000 10.773000 100 100 100
499.000000 -438.000000 10.573500 83 83 83
500.000000 -438.000000 10.174500 63 63 63
501.000000 -438.000000 10.174500 52 52 52
502.000000 -438.000000 10.374000 46 46 46
503.000000 -438.000000 10.573500 48 48 48
504.000000 -438.000000 10.573500 57 57 57
505.000000 -438.000000 10.573500 60 60 60
506.000000 -438.000000 10.573500 57 57 57
507.000000 -438.000000 10.573500 51 51 51
508.000000 -438.000000 10.573500 48 48 48
509.000000 -438.000000 10.374000 47 47 47
510.000000 -438.000000 10.573500 45 45 45
511.000000 -438.000000 10.573500 43 43 43
512.000000 -438.000000 10.573500 42 42 42
513.000000 -438.000000 10.972500 45 45 45
514.000000 -438.000000 11.371500 48 48 48
515.000000 -438.000000 11.172000 52 52 52
516.000000 -438.000000 11.172000 54 54 54
517.000000 -438.000000 11.172000 62 62 62
518.000000 -438.000000 11.172000 76 76 76
520.000000 -438.000000 11.371500 87 87 87
115.000000 -439.000000 66.632996 105 105 105
116.000000 -439.000000 66.433495 113 113 113
117.000000 -439.000000 66.433495 126 126 126
118.000000 -439.000000 66.234001 131 131 131
119.000000 -439.000000 66.433495 130 130 130
120.000000 -439.000000 66.632996 126 126 126
121.000000 -439.000000 66.234001 121 121 121
122.000000 -439.000000 66.034500 116 116 116
123.000000 -439.000000 66.034500 110 110 110
124.000000 -439.000000 66.234001 104 104 104
125.000000 -439.000000 65.834999 100 100 100
126.000000 -439.000000 65.635498 101 101 101
127.000000 -439.000000 65.635498 103 103 103
128.000000 -439.000000 65.036995 108 108 108
129.000000 -439.000000 65.236496 114 114 114
130.000000 -439.000000 64.438499 118 118 118
131.000000 -439.000000 64.238998 121 121 121
132.000000 -439.000000 64.438499 122 122 122
133.000000 -439.000000 64.238998 121 121 121
134.000000 -439.000000 64.438499 117 117 117
135.000000 -439.000000 64.638000 116 116 116
136.000000 -439.000000 64.438499 116 116 116
137.000000 -439.000000 64.238998 116 116 116
138.000000 -439.000000 64.039497 114 114 114
139.000000 -439.000000 64.039497 112 112 112
140.000000 -439.000000 64.039497 110 110 110
141.000000 -439.000000 64.238998 109 109 109
142.000000 -439.000000 64.039497 108 108 108
143.000000 -439.000000 63.640499 109 109 109
144.000000 -439.000000 63.640499 110 110 110
145.000000 -439.000000 63.640499 110 110 110
146.000000 -439.000000 63.640499 108 108 108
147.000000 -439.000000 63.640499 106 106 106
148.000000 -439.000000 63.440998 102 102 102
149.000000 -439.000000 63.241497 100 100 100
150.000000 -439.000000 63.042000 98 98 98
151.000000 -439.000000 63.241497 97 97 97
152.000000 -439.000000 63.241497 97 97 97
153.000000 -439.000000 63.241497 99 99 99
154.000000 -439.000000 63.042000 100 100 100
155.000000 -439.000000 63.241497 98 98 98
156.000000 -439.000000 63.241497 94 94 94
157.000000 -439.000000 63.241497 94 94 94
158.000000 -439.000000 63.440998 98 98 98
159.000000 -439.000000 63.640499 102 102 102
160.000000 -439.000000 63.839996 104 104 104
161.000000 -439.000000 64.039497 106 106 106
162.000000 -439.000000 64.438499 106 106 106
163.000000 -439.000000 64.438499 104 104 104
164.000000 -439.000000 64.638000 103 103 103
165.000000 -439.000000 64.638000 103 103 103
166.000000 -439.000000 64.638000 103 103 103
183.000000 -439.000000 52.867500 121 121 121
184.000000 -439.000000 53.066998 123 123 123
185.000000 -439.000000 53.066998 126 126 126
187.000000 -439.000000 53.266499 138 138 138
188.000000 -439.000000 53.466000 145 145 145
189.000000 -439.000000 53.864998 152 152 152
190.000000 -439.000000 54.064499 157 157 157
193.000000 -439.000000 54.463497 164 164 164
194.000000 -439.000000 54.463497 164 164 164
195.000000 -439.000000 54.662998 163 163 163
198.000000 -439.000000 53.665497 150 150 150
199.000000 -439.000000 54.264000 145 145 145
268.000000 -439.000000 33.515999 126 126 126
269.000000 -439.000000 33.515999 123 123 123
270.000000 -439.000000 33.715500 123 123 123
271.000000 -439.000000 33.915001 123 123 123
272.000000 -439.000000 34.114498 124 124 124
273.000000 -439.000000 33.915001 126 126 126
274.000000 -439.000000 33.915001 126 126 126
275.000000 -439.000000 33.915001 126 126 126
276.000000 -439.000000 33.915001 125 125 125
277.000000 -439.000000 34.313999 124 124 124
278.000000 -439.000000 34.712997 123 123 123
279.000000 -439.000000 34.712997 128 128 128
280.000000 -439.000000 35.112000 135 135 135
281.000000 -439.000000 35.710499 141 141 141
282.000000 -439.000000 35.910000 145 145 145
283.000000 -439.000000 36.109501 148 148 148
284.000000 -439.000000 35.910000 152 152 152
292.000000 -439.000000 146.432999 108 108 108
293.000000 -439.000000 146.632492 57 57 57
294.000000 -439.000000 146.632492 65 65 65
295.000000 -439.000000 146.632492 93 93 93
296.000000 -439.000000 146.632492 111 111 111
297.000000 -439.000000 147.430496 127 127 127
298.000000 -439.000000 147.430496 137 137 137
299.000000 -439.000000 147.430496 136 136 136
300.000000 -439.000000 146.233490 134 134 134
301.000000 -439.000000 145.435501 133 133 133
303.000000 -439.000000 145.235992 133 133 133
304.000000 -439.000000 145.036499 134 134 134
305.000000 -439.000000 144.836990 133 133 133
306.000000 -439.000000 144.836990 129 129 129
307.000000 -439.000000 144.836990 123 123 123
308.000000 -439.000000 144.438004 123 123 123
309.000000 -439.000000 143.639999 127 127 127
