ply
		format ascii 1.0
		element vertex 91286
		property float x
		property float y
		property float z
		property uchar red
		property uchar green
		property uchar blue
		end_header
95.000000 -232.000000 16.558500 11 11 11
96.000000 -232.000000 16.558500 14 14 14
97.000000 -232.000000 16.558500 14 14 14
98.000000 -232.000000 16.558500 16 16 16
99.000000 -232.000000 16.558500 14 14 14
100.000000 -232.000000 16.358999 14 14 14
101.000000 -232.000000 16.358999 13 13 13
102.000000 -232.000000 16.358999 15 15 15
103.000000 -232.000000 16.159500 14 14 14
104.000000 -232.000000 16.159500 25 25 25
105.000000 -232.000000 16.159500 29 29 29
106.000000 -232.000000 16.159500 30 30 30
107.000000 -232.000000 16.358999 27 27 27
108.000000 -232.000000 16.358999 24 24 24
109.000000 -232.000000 16.558500 19 19 19
110.000000 -232.000000 16.558500 19 19 19
111.000000 -232.000000 16.757999 17 17 17
112.000000 -232.000000 16.757999 19 19 19
113.000000 -232.000000 16.757999 18 18 18
114.000000 -232.000000 16.957500 20 20 20
115.000000 -232.000000 16.957500 19 19 19
116.000000 -232.000000 17.356499 20 20 20
117.000000 -232.000000 18.952499 17 17 17
118.000000 -232.000000 19.351500 17 17 17
119.000000 -232.000000 19.550999 10 10 10
120.000000 -232.000000 19.750500 20 20 20
121.000000 -232.000000 20.348999 25 25 25
122.000000 -232.000000 20.747999 21 21 21
123.000000 -232.000000 21.146999 13 13 13
124.000000 -232.000000 21.546000 15 15 15
125.000000 -232.000000 21.546000 22 22 22
129.000000 -232.000000 31.919998 15 15 15
130.000000 -232.000000 31.919998 18 18 18
131.000000 -232.000000 32.119499 24 24 24
132.000000 -232.000000 32.319000 25 25 25
133.000000 -232.000000 32.518497 144 144 144
134.000000 -232.000000 32.518497 226 226 226
135.000000 -232.000000 32.319000 194 194 194
136.000000 -232.000000 32.119499 213 213 213
137.000000 -232.000000 32.119499 214 214 214
138.000000 -232.000000 32.119499 212 212 212
139.000000 -232.000000 32.119499 214 214 214
140.000000 -232.000000 32.319000 213 213 213
141.000000 -232.000000 32.518497 214 214 214
142.000000 -232.000000 32.917500 217 217 217
143.000000 -232.000000 33.117001 218 218 218
144.000000 -232.000000 33.316498 221 221 221
145.000000 -232.000000 33.316498 216 216 216
146.000000 -232.000000 33.316498 220 220 220
147.000000 -232.000000 33.316498 231 231 231
148.000000 -232.000000 33.117001 228 228 228
149.000000 -232.000000 32.917500 226 226 226
150.000000 -232.000000 32.717999 223 223 223
151.000000 -232.000000 32.717999 219 219 219
152.000000 -232.000000 32.518497 213 213 213
153.000000 -232.000000 32.518497 203 203 203
154.000000 -232.000000 32.518497 199 199 199
155.000000 -232.000000 32.518497 192 192 192
156.000000 -232.000000 32.717999 192 192 192
157.000000 -232.000000 32.717999 185 185 185
158.000000 -232.000000 32.717999 183 183 183
159.000000 -232.000000 32.717999 178 178 178
160.000000 -232.000000 32.717999 189 189 189
161.000000 -232.000000 32.717999 206 206 206
162.000000 -232.000000 32.717999 225 225 225
163.000000 -232.000000 32.717999 234 234 234
164.000000 -232.000000 32.717999 238 238 238
165.000000 -232.000000 32.917500 239 239 239
166.000000 -232.000000 32.917500 227 227 227
167.000000 -232.000000 32.717999 164 164 164
168.000000 -232.000000 32.717999 170 170 170
169.000000 -232.000000 32.518497 164 164 164
170.000000 -232.000000 32.518497 166 166 166
171.000000 -232.000000 32.518497 168 168 168
172.000000 -232.000000 32.518497 171 171 171
173.000000 -232.000000 32.319000 171 171 171
174.000000 -232.000000 32.319000 172 172 172
175.000000 -232.000000 32.119499 172 172 172
176.000000 -232.000000 32.119499 176 176 176
177.000000 -232.000000 32.119499 172 172 172
178.000000 -232.000000 31.919998 171 171 171
179.000000 -232.000000 31.919998 169 169 169
180.000000 -232.000000 31.919998 172 172 172
181.000000 -232.000000 31.919998 169 169 169
182.000000 -232.000000 31.919998 112 112 112
183.000000 -232.000000 31.720499 21 21 21
184.000000 -232.000000 31.321499 64 64 64
185.000000 -232.000000 26.932499 37 37 37
186.000000 -232.000000 26.733000 35 35 35
187.000000 -232.000000 26.733000 25 25 25
188.000000 -232.000000 26.733000 19 19 19
189.000000 -232.000000 26.733000 21 21 21
190.000000 -232.000000 26.932499 22 22 22
191.000000 -232.000000 26.932499 18 18 18
192.000000 -232.000000 26.932499 19 19 19
193.000000 -232.000000 26.932499 18 18 18
194.000000 -232.000000 26.733000 18 18 18
195.000000 -232.000000 26.533499 10 10 10
196.000000 -232.000000 26.533499 13 13 13
197.000000 -232.000000 26.733000 15 15 15
198.000000 -232.000000 26.733000 15 15 15
199.000000 -232.000000 26.733000 13 13 13
200.000000 -232.000000 26.733000 15 15 15
201.000000 -232.000000 26.533499 14 14 14
202.000000 -232.000000 26.334000 16 16 16
203.000000 -232.000000 25.934999 14 14 14
204.000000 -232.000000 25.934999 16 16 16
205.000000 -232.000000 25.934999 18 18 18
206.000000 -232.000000 25.934999 15 15 15
207.000000 -232.000000 25.934999 12 12 12
208.000000 -232.000000 25.735498 15 15 15
209.000000 -232.000000 25.735498 12 12 12
210.000000 -232.000000 25.735498 12 12 12
211.000000 -232.000000 25.735498 8 8 8
212.000000 -232.000000 25.735498 11 11 11
213.000000 -232.000000 25.735498 9 9 9
214.000000 -232.000000 25.735498 10 10 10
215.000000 -232.000000 25.735498 10 10 10
216.000000 -232.000000 25.735498 11 11 11
217.000000 -232.000000 25.535999 9 9 9
218.000000 -232.000000 25.535999 14 14 14
219.000000 -232.000000 25.735498 14 14 14
220.000000 -232.000000 25.934999 16 16 16
221.000000 -232.000000 25.934999 12 12 12
222.000000 -232.000000 26.134499 15 15 15
223.000000 -232.000000 26.134499 16 16 16
224.000000 -232.000000 26.134499 27 27 27
225.000000 -232.000000 26.134499 46 46 46
226.000000 -232.000000 26.134499 45 45 45
227.000000 -232.000000 26.134499 33 33 33
228.000000 -232.000000 26.134499 21 21 21
229.000000 -232.000000 25.934999 18 18 18
230.000000 -232.000000 25.934999 19 19 19
231.000000 -232.000000 25.934999 18 18 18
232.000000 -232.000000 25.735498 20 20 20
233.000000 -232.000000 25.535999 20 20 20
234.000000 -232.000000 25.535999 20 20 20
235.000000 -232.000000 25.535999 18 18 18
236.000000 -232.000000 25.535999 21 21 21
237.000000 -232.000000 25.535999 19 19 19
238.000000 -232.000000 25.535999 21 21 21
239.000000 -232.000000 25.735498 18 18 18
240.000000 -232.000000 25.735498 17 17 17
241.000000 -232.000000 25.735498 14 14 14
242.000000 -232.000000 25.535999 14 14 14
243.000000 -232.000000 25.535999 12 12 12
244.000000 -232.000000 25.535999 12 12 12
245.000000 -232.000000 25.336500 12 12 12
246.000000 -232.000000 25.336500 12 12 12
247.000000 -232.000000 25.336500 12 12 12
248.000000 -232.000000 25.336500 11 11 11
249.000000 -232.000000 25.336500 12 12 12
250.000000 -232.000000 25.336500 11 11 11
251.000000 -232.000000 25.336500 12 12 12
252.000000 -232.000000 25.336500 13 13 13
253.000000 -232.000000 25.336500 12 12 12
254.000000 -232.000000 25.336500 12 12 12
255.000000 -232.000000 25.336500 12 12 12
256.000000 -232.000000 25.336500 12 12 12
257.000000 -232.000000 25.336500 11 11 11
258.000000 -232.000000 25.136999 14 14 14
259.000000 -232.000000 25.136999 13 13 13
260.000000 -232.000000 25.136999 14 14 14
261.000000 -232.000000 25.336500 13 13 13
262.000000 -232.000000 25.336500 14 14 14
263.000000 -232.000000 25.336500 12 12 12
264.000000 -232.000000 25.336500 14 14 14
265.000000 -232.000000 25.336500 12 12 12
266.000000 -232.000000 25.336500 14 14 14
267.000000 -232.000000 25.336500 14 14 14
268.000000 -232.000000 25.336500 15 15 15
269.000000 -232.000000 25.336500 14 14 14
270.000000 -232.000000 25.336500 14 14 14
271.000000 -232.000000 25.336500 13 13 13
272.000000 -232.000000 25.336500 12 12 12
273.000000 -232.000000 25.336500 7 7 7
274.000000 -232.000000 25.136999 9 9 9
275.000000 -232.000000 25.136999 8 8 8
276.000000 -232.000000 25.136999 9 9 9
277.000000 -232.000000 25.136999 10 10 10
278.000000 -232.000000 25.136999 13 13 13
279.000000 -232.000000 25.136999 9 9 9
280.000000 -232.000000 25.136999 9 9 9
281.000000 -232.000000 25.136999 8 8 8
282.000000 -232.000000 25.136999 9 9 9
283.000000 -232.000000 25.336500 8 8 8
284.000000 -232.000000 25.336500 9 9 9
285.000000 -232.000000 25.336500 7 7 7
286.000000 -232.000000 25.336500 9 9 9
287.000000 -232.000000 25.336500 7 7 7
288.000000 -232.000000 25.336500 8 8 8
289.000000 -232.000000 25.336500 7 7 7
290.000000 -232.000000 25.336500 10 10 10
291.000000 -232.000000 25.336500 8 8 8
292.000000 -232.000000 25.336500 9 9 9
293.000000 -232.000000 25.336500 8 8 8
294.000000 -232.000000 25.336500 11 11 11
295.000000 -232.000000 25.336500 14 14 14
296.000000 -232.000000 25.136999 16 16 16
297.000000 -232.000000 25.136999 11 11 11
298.000000 -232.000000 25.136999 13 13 13
299.000000 -232.000000 24.937500 15 15 15
300.000000 -232.000000 24.937500 29 29 29
301.000000 -232.000000 25.136999 30 30 30
302.000000 -232.000000 25.136999 30 30 30
303.000000 -232.000000 25.336500 28 28 28
304.000000 -232.000000 25.336500 31 31 31
305.000000 -232.000000 25.336500 27 27 27
306.000000 -232.000000 25.336500 31 31 31
307.000000 -232.000000 25.336500 30 30 30
308.000000 -232.000000 25.336500 32 32 32
309.000000 -232.000000 25.336500 31 31 31
310.000000 -232.000000 25.336500 33 33 33
311.000000 -232.000000 25.336500 32 32 32
312.000000 -232.000000 25.336500 33 33 33
313.000000 -232.000000 25.336500 33 33 33
314.000000 -232.000000 25.336500 34 34 34
315.000000 -232.000000 25.336500 30 30 30
316.000000 -232.000000 25.136999 35 35 35
317.000000 -232.000000 25.136999 35 35 35
318.000000 -232.000000 25.136999 35 35 35
319.000000 -232.000000 25.136999 33 33 33
320.000000 -232.000000 25.136999 26 26 26
321.000000 -232.000000 25.336500 18 18 18
322.000000 -232.000000 25.336500 16 16 16
323.000000 -232.000000 25.336500 14 14 14
324.000000 -232.000000 25.336500 15 15 15
325.000000 -232.000000 25.336500 18 18 18
326.000000 -232.000000 25.336500 35 35 35
327.000000 -232.000000 25.336500 59 59 59
328.000000 -232.000000 25.336500 61 61 61
329.000000 -232.000000 25.336500 61 61 61
330.000000 -232.000000 25.336500 62 62 62
331.000000 -232.000000 25.336500 59 59 59
332.000000 -232.000000 25.336500 60 60 60
333.000000 -232.000000 25.336500 57 57 57
334.000000 -232.000000 25.535999 58 58 58
335.000000 -232.000000 25.535999 56 56 56
336.000000 -232.000000 25.535999 53 53 53
337.000000 -232.000000 25.535999 51 51 51
338.000000 -232.000000 25.535999 53 53 53
339.000000 -232.000000 25.535999 50 50 50
340.000000 -232.000000 25.535999 54 54 54
341.000000 -232.000000 25.535999 56 56 56
342.000000 -232.000000 25.535999 55 55 55
343.000000 -232.000000 25.535999 54 54 54
344.000000 -232.000000 25.535999 59 59 59
345.000000 -232.000000 25.535999 57 57 57
346.000000 -232.000000 25.535999 56 56 56
347.000000 -232.000000 25.535999 53 53 53
348.000000 -232.000000 25.535999 54 54 54
349.000000 -232.000000 25.535999 51 51 51
350.000000 -232.000000 25.535999 44 44 44
351.000000 -232.000000 25.535999 21 21 21
352.000000 -232.000000 25.336500 22 22 22
353.000000 -232.000000 24.937500 21 21 21
354.000000 -232.000000 23.939999 23 23 23
355.000000 -232.000000 19.750500 20 20 20
357.000000 -232.000000 19.550999 21 21 21
359.000000 -232.000000 19.949999 22 22 22
360.000000 -232.000000 20.149500 22 22 22
361.000000 -232.000000 21.146999 23 23 23
362.000000 -232.000000 22.942499 25 25 25
363.000000 -232.000000 24.139500 23 23 23
364.000000 -232.000000 24.338999 25 25 25
365.000000 -232.000000 24.338999 24 24 24
366.000000 -232.000000 19.152000 22 22 22
367.000000 -232.000000 18.753000 25 25 25
368.000000 -232.000000 18.553499 25 25 25
369.000000 -232.000000 18.753000 23 23 23
370.000000 -232.000000 18.753000 25 25 25
371.000000 -232.000000 18.952499 23 23 23
372.000000 -232.000000 18.952499 24 24 24
373.000000 -232.000000 18.952499 26 26 26
374.000000 -232.000000 18.753000 26 26 26
375.000000 -232.000000 18.553499 24 24 24
376.000000 -232.000000 18.154499 28 28 28
377.000000 -232.000000 17.755499 26 26 26
378.000000 -232.000000 17.356499 28 28 28
379.000000 -232.000000 16.957500 28 28 28
380.000000 -232.000000 16.558500 29 29 29
381.000000 -232.000000 16.558500 29 29 29
382.000000 -232.000000 16.358999 30 30 30
63.000000 -233.000000 16.159500 12 12 12
64.000000 -233.000000 16.358999 13 13 13
65.000000 -233.000000 16.558500 10 10 10
66.000000 -233.000000 16.757999 10 10 10
67.000000 -233.000000 16.957500 10 10 10
68.000000 -233.000000 16.957500 12 12 12
69.000000 -233.000000 17.157000 11 11 11
70.000000 -233.000000 17.356499 11 11 11
71.000000 -233.000000 17.356499 10 10 10
72.000000 -233.000000 17.356499 10 10 10
73.000000 -233.000000 17.556000 10 10 10
74.000000 -233.000000 17.755499 10 10 10
75.000000 -233.000000 17.955000 9 9 9
76.000000 -233.000000 18.154499 11 11 11
77.000000 -233.000000 18.354000 11 11 11
78.000000 -233.000000 18.553499 17 17 17
79.000000 -233.000000 18.753000 19 19 19
80.000000 -233.000000 18.753000 16 16 16
81.000000 -233.000000 18.753000 13 13 13
82.000000 -233.000000 18.753000 15 15 15
83.000000 -233.000000 18.753000 14 14 14
84.000000 -233.000000 18.553499 13 13 13
85.000000 -233.000000 18.354000 11 11 11
86.000000 -233.000000 18.154499 15 15 15
87.000000 -233.000000 17.955000 14 14 14
88.000000 -233.000000 17.755499 17 17 17
89.000000 -233.000000 17.356499 15 15 15
90.000000 -233.000000 17.157000 14 14 14
91.000000 -233.000000 16.957500 13 13 13
92.000000 -233.000000 16.957500 17 17 17
93.000000 -233.000000 16.558500 20 20 20
94.000000 -233.000000 16.358999 15 15 15
95.000000 -233.000000 16.159500 13 13 13
96.000000 -233.000000 16.159500 16 16 16
97.000000 -233.000000 16.159500 16 16 16
98.000000 -233.000000 16.159500 16 16 16
99.000000 -233.000000 16.159500 16 16 16
100.000000 -233.000000 16.159500 16 16 16
101.000000 -233.000000 16.159500 13 13 13
102.000000 -233.000000 16.159500 17 17 17
103.000000 -233.000000 16.159500 21 21 21
104.000000 -233.000000 16.159500 31 31 31
105.000000 -233.000000 16.159500 36 36 36
106.000000 -233.000000 16.159500 41 41 41
107.000000 -233.000000 16.159500 41 41 41
108.000000 -233.000000 16.358999 41 41 41
109.000000 -233.000000 16.358999 40 40 40
110.000000 -233.000000 16.558500 43 43 43
111.000000 -233.000000 16.558500 42 42 42
112.000000 -233.000000 16.757999 42 42 42
113.000000 -233.000000 16.757999 38 38 38
114.000000 -233.000000 16.957500 37 37 37
115.000000 -233.000000 16.957500 34 34 34
116.000000 -233.000000 17.356499 34 34 34
117.000000 -233.000000 19.152000 33 33 33
118.000000 -233.000000 19.351500 24 24 24
119.000000 -233.000000 19.550999 10 10 10
120.000000 -233.000000 19.750500 21 21 21
121.000000 -233.000000 20.548500 28 28 28
122.000000 -233.000000 20.947500 22 22 22
123.000000 -233.000000 21.346498 13 13 13
124.000000 -233.000000 21.546000 18 18 18
125.000000 -233.000000 21.546000 22 22 22
130.000000 -233.000000 31.919998 19 19 19
131.000000 -233.000000 31.919998 24 24 24
132.000000 -233.000000 32.119499 29 29 29
133.000000 -233.000000 32.319000 151 151 151
134.000000 -233.000000 32.319000 223 223 223
135.000000 -233.000000 32.319000 195 195 195
136.000000 -233.000000 32.119499 211 211 211
137.000000 -233.000000 32.119499 214 214 214
138.000000 -233.000000 32.119499 211 211 211
139.000000 -233.000000 32.119499 214 214 214
140.000000 -233.000000 32.319000 216 216 216
141.000000 -233.000000 32.518497 214 214 214
142.000000 -233.000000 32.717999 219 219 219
143.000000 -233.000000 32.917500 221 221 221
144.000000 -233.000000 33.316498 224 224 224
145.000000 -233.000000 33.515999 225 225 225
146.000000 -233.000000 33.316498 230 230 230
147.000000 -233.000000 33.316498 237 237 237
148.000000 -233.000000 32.917500 241 241 241
149.000000 -233.000000 32.717999 242 242 242
150.000000 -233.000000 32.518497 243 243 243
151.000000 -233.000000 32.518497 243 243 243
152.000000 -233.000000 32.518497 243 243 243
153.000000 -233.000000 32.518497 244 244 244
154.000000 -233.000000 32.518497 245 245 245
155.000000 -233.000000 32.518497 244 244 244
156.000000 -233.000000 32.717999 239 239 239
157.000000 -233.000000 32.717999 233 233 233
158.000000 -233.000000 32.717999 231 231 231
159.000000 -233.000000 32.717999 234 234 234
160.000000 -233.000000 32.518497 238 238 238
161.000000 -233.000000 32.518497 241 241 241
162.000000 -233.000000 32.518497 242 242 242
163.000000 -233.000000 32.717999 243 243 243
164.000000 -233.000000 32.717999 242 242 242
165.000000 -233.000000 32.717999 243 243 243
166.000000 -233.000000 32.717999 231 231 231
167.000000 -233.000000 32.717999 165 165 165
168.000000 -233.000000 32.518497 169 169 169
169.000000 -233.000000 32.518497 165 165 165
170.000000 -233.000000 32.518497 167 167 167
171.000000 -233.000000 32.518497 169 169 169
172.000000 -233.000000 32.319000 173 173 173
173.000000 -233.000000 32.319000 173 173 173
174.000000 -233.000000 32.319000 174 174 174
175.000000 -233.000000 32.319000 170 170 170
176.000000 -233.000000 32.119499 175 175 175
177.000000 -233.000000 32.119499 173 173 173
178.000000 -233.000000 32.119499 173 173 173
179.000000 -233.000000 31.919998 171 171 171
180.000000 -233.000000 31.919998 175 175 175
181.000000 -233.000000 31.919998 171 171 171
182.000000 -233.000000 31.919998 125 125 125
183.000000 -233.000000 31.720499 51 51 51
184.000000 -233.000000 31.521000 83 83 83
185.000000 -233.000000 26.932499 73 73 73
186.000000 -233.000000 26.733000 59 59 59
187.000000 -233.000000 26.733000 41 41 41
188.000000 -233.000000 26.733000 32 32 32
189.000000 -233.000000 26.733000 30 30 30
190.000000 -233.000000 26.733000 32 32 32
191.000000 -233.000000 26.733000 27 27 27
192.000000 -233.000000 26.733000 30 30 30
193.000000 -233.000000 26.533499 27 27 27
194.000000 -233.000000 26.533499 27 27 27
195.000000 -233.000000 26.334000 6 6 6
196.000000 -233.000000 26.334000 14 14 14
197.000000 -233.000000 26.334000 11 11 11
198.000000 -233.000000 26.334000 15 15 15
199.000000 -233.000000 26.533499 13 13 13
200.000000 -233.000000 26.334000 13 13 13
201.000000 -233.000000 26.334000 12 12 12
202.000000 -233.000000 25.934999 15 15 15
203.000000 -233.000000 25.735498 14 14 14
204.000000 -233.000000 25.735498 15 15 15
205.000000 -233.000000 25.735498 14 14 14
206.000000 -233.000000 25.735498 16 16 16
207.000000 -233.000000 25.735498 12 12 12
208.000000 -233.000000 25.735498 14 14 14
209.000000 -233.000000 25.735498 11 11 11
210.000000 -233.000000 25.535999 12 12 12
211.000000 -233.000000 25.535999 10 10 10
212.000000 -233.000000 25.535999 11 11 11
213.000000 -233.000000 25.735498 9 9 9
214.000000 -233.000000 25.735498 11 11 11
215.000000 -233.000000 25.735498 9 9 9
216.000000 -233.000000 25.535999 11 11 11
217.000000 -233.000000 25.535999 10 10 10
218.000000 -233.000000 25.535999 15 15 15
219.000000 -233.000000 25.735498 16 16 16
220.000000 -233.000000 25.735498 17 17 17
221.000000 -233.000000 26.134499 12 12 12
222.000000 -233.000000 26.134499 18 18 18
223.000000 -233.000000 26.134499 20 20 20
224.000000 -233.000000 26.134499 32 32 32
225.000000 -233.000000 15.959999 34 34 34
226.000000 -233.000000 15.959999 18 18 18
227.000000 -233.000000 15.959999 22 22 22
228.000000 -233.000000 16.159500 32 32 32
229.000000 -233.000000 16.558500 34 34 34
230.000000 -233.000000 16.558500 35 35 35
231.000000 -233.000000 16.957500 33 33 33
233.000000 -233.000000 24.737999 38 38 38
234.000000 -233.000000 24.737999 39 39 39
235.000000 -233.000000 24.737999 38 38 38
236.000000 -233.000000 24.737999 38 38 38
237.000000 -233.000000 24.737999 36 36 36
238.000000 -233.000000 25.136999 34 34 34
239.000000 -233.000000 25.336500 31 31 31
240.000000 -233.000000 25.336500 30 30 30
241.000000 -233.000000 25.336500 23 23 23
242.000000 -233.000000 25.336500 19 19 19
243.000000 -233.000000 25.136999 12 12 12
244.000000 -233.000000 25.136999 12 12 12
245.000000 -233.000000 24.937500 10 10 10
246.000000 -233.000000 24.937500 13 13 13
247.000000 -233.000000 24.937500 13 13 13
248.000000 -233.000000 25.136999 13 13 13
249.000000 -233.000000 25.136999 11 11 11
250.000000 -233.000000 25.136999 12 12 12
251.000000 -233.000000 25.336500 11 11 11
252.000000 -233.000000 25.336500 11 11 11
253.000000 -233.000000 25.336500 9 9 9
254.000000 -233.000000 25.336500 12 12 12
255.000000 -233.000000 25.136999 11 11 11
256.000000 -233.000000 25.136999 11 11 11
257.000000 -233.000000 25.136999 11 11 11
258.000000 -233.000000 25.136999 13 13 13
259.000000 -233.000000 25.136999 11 11 11
260.000000 -233.000000 25.136999 12 12 12
261.000000 -233.000000 25.136999 10 10 10
262.000000 -233.000000 25.136999 13 13 13
263.000000 -233.000000 25.136999 11 11 11
264.000000 -233.000000 25.136999 12 12 12
265.000000 -233.000000 25.136999 11 11 11
266.000000 -233.000000 25.136999 13 13 13
267.000000 -233.000000 25.136999 11 11 11
268.000000 -233.000000 25.136999 13 13 13
269.000000 -233.000000 25.136999 12 12 12
270.000000 -233.000000 25.136999 13 13 13
271.000000 -233.000000 25.136999 12 12 12
272.000000 -233.000000 25.136999 11 11 11
273.000000 -233.000000 25.136999 8 8 8
274.000000 -233.000000 24.937500 9 9 9
275.000000 -233.000000 24.937500 7 7 7
276.000000 -233.000000 24.937500 10 10 10
277.000000 -233.000000 24.937500 9 9 9
278.000000 -233.000000 24.937500 11 11 11
279.000000 -233.000000 24.937500 9 9 9
280.000000 -233.000000 25.136999 9 9 9
281.000000 -233.000000 25.136999 8 8 8
282.000000 -233.000000 25.136999 10 10 10
283.000000 -233.000000 25.136999 7 7 7
284.000000 -233.000000 25.136999 10 10 10
285.000000 -233.000000 25.136999 7 7 7
286.000000 -233.000000 25.136999 9 9 9
287.000000 -233.000000 25.136999 8 8 8
288.000000 -233.000000 25.336500 8 8 8
289.000000 -233.000000 25.136999 9 9 9
290.000000 -233.000000 25.336500 9 9 9
291.000000 -233.000000 25.336500 8 8 8
292.000000 -233.000000 25.336500 9 9 9
293.000000 -233.000000 25.136999 9 9 9
294.000000 -233.000000 25.136999 10 10 10
295.000000 -233.000000 25.136999 14 14 14
296.000000 -233.000000 25.136999 15 15 15
297.000000 -233.000000 24.937500 12 12 12
298.000000 -233.000000 24.937500 13 13 13
299.000000 -233.000000 24.937500 15 15 15
300.000000 -233.000000 24.737999 28 28 28
301.000000 -233.000000 24.937500 29 29 29
302.000000 -233.000000 24.937500 30 30 30
303.000000 -233.000000 25.136999 29 29 29
304.000000 -233.000000 25.336500 29 29 29
305.000000 -233.000000 25.336500 31 31 31
306.000000 -233.000000 25.336500 30 30 30
307.000000 -233.000000 25.336500 28 28 28
308.000000 -233.000000 25.336500 30 30 30
309.000000 -233.000000 25.336500 31 31 31
310.000000 -233.000000 25.336500 32 32 32
311.000000 -233.000000 25.336500 30 30 30
312.000000 -233.000000 25.336500 33 33 33
313.000000 -233.000000 25.336500 31 31 31
314.000000 -233.000000 25.336500 33 33 33
315.000000 -233.000000 25.136999 32 32 32
316.000000 -233.000000 25.136999 34 34 34
317.000000 -233.000000 24.937500 32 32 32
318.000000 -233.000000 24.937500 34 34 34
319.000000 -233.000000 25.136999 33 33 33
320.000000 -233.000000 25.136999 23 23 23
321.000000 -233.000000 25.136999 16 16 16
322.000000 -233.000000 25.336500 13 13 13
323.000000 -233.000000 25.336500 11 11 11
324.000000 -233.000000 25.336500 19 19 19
325.000000 -233.000000 25.336500 35 35 35
326.000000 -233.000000 25.336500 54 54 54
327.000000 -233.000000 25.336500 77 77 77
328.000000 -233.000000 25.336500 83 83 83
329.000000 -233.000000 25.336500 82 82 82
330.000000 -233.000000 25.336500 85 85 85
331.000000 -233.000000 25.336500 83 83 83
332.000000 -233.000000 25.336500 87 87 87
333.000000 -233.000000 25.336500 84 84 84
334.000000 -233.000000 25.535999 86 86 86
335.000000 -233.000000 25.535999 82 82 82
336.000000 -233.000000 25.535999 82 82 82
337.000000 -233.000000 25.535999 80 80 80
338.000000 -233.000000 25.535999 81 81 81
339.000000 -233.000000 25.535999 77 77 77
340.000000 -233.000000 25.535999 77 77 77
341.000000 -233.000000 25.535999 81 81 81
342.000000 -233.000000 25.535999 79 79 79
343.000000 -233.000000 25.535999 76 76 76
344.000000 -233.000000 25.535999 81 81 81
345.000000 -233.000000 25.535999 81 81 81
346.000000 -233.000000 25.535999 81 81 81
347.000000 -233.000000 25.535999 79 79 79
348.000000 -233.000000 25.535999 80 80 80
349.000000 -233.000000 25.535999 77 77 77
350.000000 -233.000000 25.535999 61 61 61
351.000000 -233.000000 25.535999 20 20 20
352.000000 -233.000000 25.336500 20 20 20
353.000000 -233.000000 25.136999 21 21 21
354.000000 -233.000000 24.338999 23 23 23
355.000000 -233.000000 19.750500 21 21 21
360.000000 -233.000000 22.344000 22 22 22
361.000000 -233.000000 24.139500 23 23 23
362.000000 -233.000000 24.338999 24 24 24
363.000000 -233.000000 24.338999 24 24 24
364.000000 -233.000000 24.538500 24 24 24
365.000000 -233.000000 24.538500 23 23 23
366.000000 -233.000000 24.538500 25 25 25
367.000000 -233.000000 24.338999 22 22 22
368.000000 -233.000000 19.152000 24 24 24
369.000000 -233.000000 19.152000 22 22 22
370.000000 -233.000000 18.952499 24 24 24
371.000000 -233.000000 18.952499 24 24 24
372.000000 -233.000000 18.952499 25 25 25
373.000000 -233.000000 18.952499 25 25 25
374.000000 -233.000000 18.952499 26 26 26
375.000000 -233.000000 18.753000 25 25 25
376.000000 -233.000000 18.354000 28 28 28
377.000000 -233.000000 18.154499 26 26 26
378.000000 -233.000000 17.356499 28 28 28
379.000000 -233.000000 17.157000 26 26 26
380.000000 -233.000000 16.757999 31 31 31
381.000000 -233.000000 16.558500 29 29 29
63.000000 -234.000000 16.159500 12 12 12
64.000000 -234.000000 16.358999 13 13 13
65.000000 -234.000000 16.358999 12 12 12
66.000000 -234.000000 16.558500 13 13 13
67.000000 -234.000000 16.757999 11 11 11
68.000000 -234.000000 16.957500 13 13 13
69.000000 -234.000000 16.957500 10 10 10
70.000000 -234.000000 17.157000 11 11 11
71.000000 -234.000000 17.356499 11 11 11
72.000000 -234.000000 17.356499 11 11 11
73.000000 -234.000000 17.356499 10 10 10
74.000000 -234.000000 17.556000 12 12 12
75.000000 -234.000000 17.755499 11 11 11
76.000000 -234.000000 17.955000 11 11 11
77.000000 -234.000000 18.354000 14 14 14
78.000000 -234.000000 18.553499 18 18 18
79.000000 -234.000000 18.553499 17 17 17
80.000000 -234.000000 18.753000 14 14 14
81.000000 -234.000000 18.753000 12 12 12
82.000000 -234.000000 18.753000 15 15 15
83.000000 -234.000000 18.553499 14 14 14
84.000000 -234.000000 18.354000 12 12 12
85.000000 -234.000000 18.354000 16 16 16
86.000000 -234.000000 18.154499 29 29 29
87.000000 -234.000000 17.955000 24 24 24
88.000000 -234.000000 17.755499 27 27 27
89.000000 -234.000000 17.157000 23 23 23
90.000000 -234.000000 16.957500 23 23 23
91.000000 -234.000000 16.957500 23 23 23
92.000000 -234.000000 16.558500 32 32 32
93.000000 -234.000000 16.358999 30 30 30
94.000000 -234.000000 16.159500 19 19 19
95.000000 -234.000000 16.159500 23 23 23
96.000000 -234.000000 16.159500 22 22 22
97.000000 -234.000000 16.159500 28 28 28
98.000000 -234.000000 16.159500 32 32 32
99.000000 -234.000000 16.159500 24 24 24
100.000000 -234.000000 16.159500 27 27 27
101.000000 -234.000000 16.159500 16 16 16
102.000000 -234.000000 16.159500 17 17 17
103.000000 -234.000000 16.159500 33 33 33
104.000000 -234.000000 16.159500 44 44 44
105.000000 -234.000000 16.159500 49 49 49
106.000000 -234.000000 16.159500 58 58 58
107.000000 -234.000000 16.159500 59 59 59
108.000000 -234.000000 16.159500 62 62 62
109.000000 -234.000000 16.358999 63 63 63
110.000000 -234.000000 16.558500 63 63 63
111.000000 -234.000000 16.558500 62 62 62
112.000000 -234.000000 16.558500 59 59 59
113.000000 -234.000000 16.757999 51 51 51
114.000000 -234.000000 16.757999 51 51 51
115.000000 -234.000000 16.957500 41 41 41
116.000000 -234.000000 17.356499 41 41 41
117.000000 -234.000000 19.152000 33 33 33
118.000000 -234.000000 19.351500 25 25 25
119.000000 -234.000000 19.550999 18 18 18
120.000000 -234.000000 19.949999 21 21 21
121.000000 -234.000000 20.947500 26 26 26
122.000000 -234.000000 21.146999 22 22 22
123.000000 -234.000000 21.346498 17 17 17
124.000000 -234.000000 21.346498 20 20 20
125.000000 -234.000000 21.346498 22 22 22
129.000000 -234.000000 31.919998 19 19 19
130.000000 -234.000000 31.919998 22 22 22
131.000000 -234.000000 31.919998 25 25 25
132.000000 -234.000000 32.119499 30 30 30
133.000000 -234.000000 32.319000 159 159 159
134.000000 -234.000000 32.319000 221 221 221
135.000000 -234.000000 32.518497 198 198 198
136.000000 -234.000000 32.518497 210 210 210
137.000000 -234.000000 32.319000 215 215 215
138.000000 -234.000000 32.119499 213 213 213
139.000000 -234.000000 32.319000 215 215 215
140.000000 -234.000000 32.319000 215 215 215
141.000000 -234.000000 32.518497 216 216 216
142.000000 -234.000000 32.717999 221 221 221
143.000000 -234.000000 32.717999 223 223 223
144.000000 -234.000000 33.316498 223 223 223
145.000000 -234.000000 33.515999 224 224 224
146.000000 -234.000000 33.515999 229 229 229
147.000000 -234.000000 33.117001 237 237 237
148.000000 -234.000000 32.717999 241 241 241
149.000000 -234.000000 32.518497 242 242 242
150.000000 -234.000000 32.518497 243 243 243
151.000000 -234.000000 32.319000 243 243 243
152.000000 -234.000000 32.518497 243 243 243
153.000000 -234.000000 32.518497 245 245 245
154.000000 -234.000000 32.518497 245 245 245
155.000000 -234.000000 32.518497 246 246 246
156.000000 -234.000000 32.717999 246 246 246
157.000000 -234.000000 32.717999 246 246 246
158.000000 -234.000000 32.717999 246 246 246
159.000000 -234.000000 32.518497 246 246 246
160.000000 -234.000000 32.518497 246 246 246
161.000000 -234.000000 32.518497 246 246 246
162.000000 -234.000000 32.518497 246 246 246
163.000000 -234.000000 32.518497 246 246 246
164.000000 -234.000000 32.518497 246 246 246
165.000000 -234.000000 32.717999 244 244 244
166.000000 -234.000000 32.717999 233 233 233
167.000000 -234.000000 32.717999 169 169 169
168.000000 -234.000000 32.518497 171 171 171
169.000000 -234.000000 32.518497 168 168 168
170.000000 -234.000000 32.518497 171 171 171
171.000000 -234.000000 32.319000 171 171 171
172.000000 -234.000000 32.319000 174 174 174
173.000000 -234.000000 32.319000 171 171 171
174.000000 -234.000000 32.319000 172 172 172
175.000000 -234.000000 32.319000 171 171 171
176.000000 -234.000000 32.119499 176 176 176
177.000000 -234.000000 32.119499 173 173 173
178.000000 -234.000000 32.119499 173 173 173
179.000000 -234.000000 31.919998 173 173 173
180.000000 -234.000000 31.919998 173 173 173
181.000000 -234.000000 31.919998 171 171 171
182.000000 -234.000000 31.919998 125 125 125
183.000000 -234.000000 31.720499 52 52 52
184.000000 -234.000000 31.521000 82 82 82
185.000000 -234.000000 26.733000 74 74 74
186.000000 -234.000000 26.533499 67 67 67
187.000000 -234.000000 26.533499 46 46 46
188.000000 -234.000000 26.533499 34 34 34
189.000000 -234.000000 26.733000 29 29 29
190.000000 -234.000000 26.733000 31 31 31
191.000000 -234.000000 26.733000 27 27 27
192.000000 -234.000000 26.533499 29 29 29
193.000000 -234.000000 26.533499 29 29 29
194.000000 -234.000000 26.334000 23 23 23
195.000000 -234.000000 26.134499 8 8 8
196.000000 -234.000000 26.134499 13 13 13
197.000000 -234.000000 26.134499 11 11 11
198.000000 -234.000000 26.334000 13 13 13
199.000000 -234.000000 26.334000 11 11 11
200.000000 -234.000000 26.334000 12 12 12
201.000000 -234.000000 26.334000 11 11 11
202.000000 -234.000000 25.735498 12 12 12
203.000000 -234.000000 25.735498 11 11 11
204.000000 -234.000000 25.735498 13 13 13
205.000000 -234.000000 25.735498 13 13 13
206.000000 -234.000000 25.735498 15 15 15
207.000000 -234.000000 25.735498 14 14 14
208.000000 -234.000000 25.735498 14 14 14
209.000000 -234.000000 25.535999 13 13 13
210.000000 -234.000000 25.535999 13 13 13
211.000000 -234.000000 25.535999 11 11 11
212.000000 -234.000000 25.535999 13 13 13
213.000000 -234.000000 25.535999 11 11 11
214.000000 -234.000000 25.535999 12 12 12
215.000000 -234.000000 25.535999 11 11 11
216.000000 -234.000000 25.535999 12 12 12
217.000000 -234.000000 25.535999 13 13 13
218.000000 -234.000000 25.735498 18 18 18
219.000000 -234.000000 25.735498 18 18 18
220.000000 -234.000000 26.134499 18 18 18
221.000000 -234.000000 26.334000 16 16 16
222.000000 -234.000000 26.334000 21 21 21
223.000000 -234.000000 26.134499 27 27 27
224.000000 -234.000000 15.959999 36 36 36
225.000000 -234.000000 15.959999 32 32 32
226.000000 -234.000000 15.760500 23 23 23
227.000000 -234.000000 15.760500 25 25 25
228.000000 -234.000000 15.959999 48 48 48
229.000000 -234.000000 16.159500 49 49 49
230.000000 -234.000000 16.159500 51 51 51
231.000000 -234.000000 16.358999 49 49 49
235.000000 -234.000000 17.356499 49 49 49
236.000000 -234.000000 17.356499 49 49 49
237.000000 -234.000000 17.356499 43 43 43
238.000000 -234.000000 17.157000 29 29 29
239.000000 -234.000000 16.957500 20 20 20
240.000000 -234.000000 16.957500 30 30 30
241.000000 -234.000000 16.957500 31 31 31
242.000000 -234.000000 16.757999 23 23 23
243.000000 -234.000000 16.757999 15 15 15
244.000000 -234.000000 16.558500 13 13 13
245.000000 -234.000000 16.757999 11 11 11
246.000000 -234.000000 24.538500 13 13 13
247.000000 -234.000000 24.737999 11 11 11
248.000000 -234.000000 24.937500 12 12 12
249.000000 -234.000000 24.937500 10 10 10
250.000000 -234.000000 25.136999 12 12 12
251.000000 -234.000000 25.136999 10 10 10
252.000000 -234.000000 25.136999 12 12 12
253.000000 -234.000000 25.136999 9 9 9
254.000000 -234.000000 25.136999 12 12 12
255.000000 -234.000000 25.136999 10 10 10
256.000000 -234.000000 25.136999 11 11 11
257.000000 -234.000000 25.136999 10 10 10
258.000000 -234.000000 24.937500 11 11 11
259.000000 -234.000000 24.937500 10 10 10
260.000000 -234.000000 24.937500 11 11 11
261.000000 -234.000000 24.937500 10 10 10
262.000000 -234.000000 25.136999 13 13 13
263.000000 -234.000000 25.136999 13 13 13
264.000000 -234.000000 25.136999 13 13 13
265.000000 -234.000000 25.136999 11 11 11
266.000000 -234.000000 25.136999 12 12 12
267.000000 -234.000000 25.136999 10 10 10
268.000000 -234.000000 25.136999 12 12 12
269.000000 -234.000000 25.136999 11 11 11
270.000000 -234.000000 25.136999 14 14 14
271.000000 -234.000000 25.136999 11 11 11
272.000000 -234.000000 24.937500 12 12 12
273.000000 -234.000000 24.937500 11 11 11
274.000000 -234.000000 24.538500 12 12 12
275.000000 -234.000000 24.538500 10 10 10
276.000000 -234.000000 24.737999 13 13 13
277.000000 -234.000000 24.737999 10 10 10
278.000000 -234.000000 24.737999 12 12 12
279.000000 -234.000000 24.937500 10 10 10
280.000000 -234.000000 24.937500 11 11 11
281.000000 -234.000000 25.136999 9 9 9
282.000000 -234.000000 25.136999 9 9 9
283.000000 -234.000000 25.136999 9 9 9
284.000000 -234.000000 25.136999 8 8 8
285.000000 -234.000000 25.136999 7 7 7
286.000000 -234.000000 25.136999 9 9 9
287.000000 -234.000000 25.136999 7 7 7
288.000000 -234.000000 25.136999 9 9 9
289.000000 -234.000000 25.136999 8 8 8
290.000000 -234.000000 25.136999 9 9 9
291.000000 -234.000000 25.136999 7 7 7
292.000000 -234.000000 25.136999 9 9 9
293.000000 -234.000000 25.136999 9 9 9
294.000000 -234.000000 25.136999 11 11 11
295.000000 -234.000000 25.136999 14 14 14
296.000000 -234.000000 24.937500 16 16 16
297.000000 -234.000000 24.937500 11 11 11
298.000000 -234.000000 24.737999 13 13 13
299.000000 -234.000000 24.737999 14 14 14
300.000000 -234.000000 24.737999 30 30 30
301.000000 -234.000000 24.737999 29 29 29
302.000000 -234.000000 24.937500 29 29 29
303.000000 -234.000000 24.937500 28 28 28
304.000000 -234.000000 25.136999 31 31 31
305.000000 -234.000000 25.336500 30 30 30
306.000000 -234.000000 25.336500 32 32 32
307.000000 -234.000000 25.136999 28 28 28
308.000000 -234.000000 25.136999 31 31 31
309.000000 -234.000000 25.136999 30 30 30
310.000000 -234.000000 25.336500 30 30 30
311.000000 -234.000000 25.336500 31 31 31
312.000000 -234.000000 25.336500 33 33 33
313.000000 -234.000000 25.336500 30 30 30
314.000000 -234.000000 25.136999 31 31 31
315.000000 -234.000000 25.136999 31 31 31
316.000000 -234.000000 24.937500 35 35 35
317.000000 -234.000000 24.937500 32 32 32
318.000000 -234.000000 24.937500 33 33 33
319.000000 -234.000000 24.937500 31 31 31
320.000000 -234.000000 25.136999 21 21 21
321.000000 -234.000000 25.136999 16 16 16
322.000000 -234.000000 25.336500 13 13 13
323.000000 -234.000000 25.336500 23 23 23
324.000000 -234.000000 25.336500 42 42 42
325.000000 -234.000000 25.336500 49 49 49
326.000000 -234.000000 25.336500 56 56 56
327.000000 -234.000000 25.336500 77 77 77
328.000000 -234.000000 25.336500 82 82 82
329.000000 -234.000000 25.336500 83 83 83
330.000000 -234.000000 25.336500 86 86 86
331.000000 -234.000000 25.336500 84 84 84
332.000000 -234.000000 25.535999 88 88 88
333.000000 -234.000000 25.535999 85 85 85
334.000000 -234.000000 25.535999 86 86 86
335.000000 -234.000000 25.535999 82 82 82
336.000000 -234.000000 25.535999 82 82 82
337.000000 -234.000000 25.535999 80 80 80
338.000000 -234.000000 25.535999 82 82 82
339.000000 -234.000000 25.535999 76 76 76
340.000000 -234.000000 25.535999 77 77 77
341.000000 -234.000000 25.535999 79 79 79
342.000000 -234.000000 25.535999 79 79 79
343.000000 -234.000000 25.535999 77 77 77
344.000000 -234.000000 25.535999 79 79 79
345.000000 -234.000000 25.535999 80 80 80
346.000000 -234.000000 25.535999 80 80 80
347.000000 -234.000000 25.535999 80 80 80
348.000000 -234.000000 25.535999 80 80 80
349.000000 -234.000000 25.535999 76 76 76
350.000000 -234.000000 25.535999 62 62 62
351.000000 -234.000000 25.535999 19 19 19
352.000000 -234.000000 25.336500 21 21 21
353.000000 -234.000000 25.136999 21 21 21
354.000000 -234.000000 24.338999 22 22 22
355.000000 -234.000000 24.139500 21 21 21
359.000000 -234.000000 23.939999 20 20 20
360.000000 -234.000000 24.338999 23 23 23
361.000000 -234.000000 24.338999 22 22 22
362.000000 -234.000000 24.338999 23 23 23
363.000000 -234.000000 24.538500 22 22 22
364.000000 -234.000000 24.538500 23 23 23
365.000000 -234.000000 24.737999 22 22 22
366.000000 -234.000000 24.737999 24 24 24
367.000000 -234.000000 24.737999 23 23 23
368.000000 -234.000000 24.338999 25 25 25
369.000000 -234.000000 19.750500 23 23 23
370.000000 -234.000000 19.152000 23 23 23
371.000000 -234.000000 19.152000 22 22 22
372.000000 -234.000000 19.152000 26 26 26
373.000000 -234.000000 19.152000 24 24 24
374.000000 -234.000000 18.952499 26 26 26
375.000000 -234.000000 18.952499 24 24 24
376.000000 -234.000000 18.753000 26 26 26
377.000000 -234.000000 18.354000 26 26 26
378.000000 -234.000000 17.955000 28 28 28
379.000000 -234.000000 17.157000 27 27 27
380.000000 -234.000000 16.957500 30 30 30
381.000000 -234.000000 16.757999 27 27 27
63.000000 -235.000000 15.959999 15 15 15
64.000000 -235.000000 16.159500 17 17 17
65.000000 -235.000000 16.358999 14 14 14
66.000000 -235.000000 16.358999 15 15 15
67.000000 -235.000000 16.558500 13 13 13
68.000000 -235.000000 16.757999 14 14 14
69.000000 -235.000000 16.757999 11 11 11
70.000000 -235.000000 16.957500 12 12 12
71.000000 -235.000000 16.957500 10 10 10
72.000000 -235.000000 17.157000 12 12 12
73.000000 -235.000000 17.157000 9 9 9
74.000000 -235.000000 17.356499 11 11 11
75.000000 -235.000000 17.755499 9 9 9
76.000000 -235.000000 17.955000 13 13 13
77.000000 -235.000000 18.154499 16 16 16
78.000000 -235.000000 18.354000 20 20 20
79.000000 -235.000000 18.553499 16 16 16
80.000000 -235.000000 18.553499 14 14 14
81.000000 -235.000000 18.553499 13 13 13
82.000000 -235.000000 18.553499 16 16 16
83.000000 -235.000000 18.354000 12 12 12
84.000000 -235.000000 18.354000 13 13 13
85.000000 -235.000000 18.154499 14 14 14
86.000000 -235.000000 17.955000 18 18 18
87.000000 -235.000000 17.755499 14 14 14
88.000000 -235.000000 17.556000 16 16 16
89.000000 -235.000000 17.157000 13 13 13
90.000000 -235.000000 16.957500 14 14 14
91.000000 -235.000000 16.757999 15 15 15
92.000000 -235.000000 16.558500 18 18 18
93.000000 -235.000000 16.159500 14 14 14
94.000000 -235.000000 16.159500 15 15 15
95.000000 -235.000000 16.159500 15 15 15
96.000000 -235.000000 15.959999 17 17 17
97.000000 -235.000000 16.159500 21 21 21
98.000000 -235.000000 16.159500 29 29 29
99.000000 -235.000000 16.159500 25 25 25
100.000000 -235.000000 16.159500 32 32 32
101.000000 -235.000000 15.959999 23 23 23
102.000000 -235.000000 15.959999 20 20 20
103.000000 -235.000000 16.159500 29 29 29
104.000000 -235.000000 16.159500 42 42 42
105.000000 -235.000000 16.159500 48 48 48
106.000000 -235.000000 16.159500 54 54 54
107.000000 -235.000000 16.159500 55 55 55
108.000000 -235.000000 16.159500 54 54 54
109.000000 -235.000000 16.358999 52 52 52
110.000000 -235.000000 16.358999 52 52 52
111.000000 -235.000000 16.558500 51 51 51
112.000000 -235.000000 16.558500 50 50 50
113.000000 -235.000000 16.558500 44 44 44
114.000000 -235.000000 16.757999 46 46 46
115.000000 -235.000000 16.757999 39 39 39
116.000000 -235.000000 17.157000 38 38 38
117.000000 -235.000000 19.152000 25 25 25
118.000000 -235.000000 19.351500 51 51 51
119.000000 -235.000000 19.750500 62 62 62
120.000000 -235.000000 20.947500 9 9 9
121.000000 -235.000000 20.947500 32 32 32
122.000000 -235.000000 21.146999 20 20 20
123.000000 -235.000000 21.346498 30 30 30
124.000000 -235.000000 21.346498 45 45 45
125.000000 -235.000000 21.346498 13 13 13
126.000000 -235.000000 21.745499 32 32 32
128.000000 -235.000000 37.705498 16 16 16
129.000000 -235.000000 32.119499 33 33 33
130.000000 -235.000000 32.119499 38 38 38
131.000000 -235.000000 32.119499 18 18 18
132.000000 -235.000000 32.319000 36 36 36
133.000000 -235.000000 32.319000 168 168 168
134.000000 -235.000000 32.717999 217 217 217
135.000000 -235.000000 33.117001 199 199 199
136.000000 -235.000000 33.117001 209 209 209
137.000000 -235.000000 32.717999 214 214 214
138.000000 -235.000000 32.319000 213 213 213
139.000000 -235.000000 32.319000 215 215 215
140.000000 -235.000000 32.518497 217 217 217
141.000000 -235.000000 32.518497 219 219 219
142.000000 -235.000000 32.717999 223 223 223
143.000000 -235.000000 33.117001 224 224 224
144.000000 -235.000000 33.316498 225 225 225
145.000000 -235.000000 33.515999 225 225 225
146.000000 -235.000000 33.515999 228 228 228
147.000000 -235.000000 33.117001 236 236 236
148.000000 -235.000000 32.717999 240 240 240
149.000000 -235.000000 32.717999 241 241 241
150.000000 -235.000000 32.518497 242 242 242
151.000000 -235.000000 32.319000 242 242 242
152.000000 -235.000000 32.518497 242 242 242
153.000000 -235.000000 32.518497 243 243 243
154.000000 -235.000000 32.518497 244 244 244
155.000000 -235.000000 32.717999 244 244 244
156.000000 -235.000000 32.717999 245 245 245
157.000000 -235.000000 32.717999 246 246 246
158.000000 -235.000000 32.717999 245 245 245
159.000000 -235.000000 32.717999 245 245 245
160.000000 -235.000000 32.518497 245 245 245
161.000000 -235.000000 32.518497 244 244 244
162.000000 -235.000000 32.518497 245 245 245
163.000000 -235.000000 32.518497 245 245 245
164.000000 -235.000000 32.518497 245 245 245
165.000000 -235.000000 32.717999 245 245 245
166.000000 -235.000000 32.717999 236 236 236
167.000000 -235.000000 32.717999 169 169 169
168.000000 -235.000000 32.717999 170 170 170
169.000000 -235.000000 32.518497 167 167 167
170.000000 -235.000000 32.518497 172 172 172
171.000000 -235.000000 32.518497 172 172 172
172.000000 -235.000000 32.319000 173 173 173
173.000000 -235.000000 32.319000 171 171 171
174.000000 -235.000000 32.319000 171 171 171
175.000000 -235.000000 32.319000 171 171 171
176.000000 -235.000000 32.319000 176 176 176
177.000000 -235.000000 32.119499 174 174 174
178.000000 -235.000000 32.119499 174 174 174
179.000000 -235.000000 32.119499 174 174 174
180.000000 -235.000000 31.919998 179 179 179
181.000000 -235.000000 31.919998 176 176 176
182.000000 -235.000000 31.919998 126 126 126
183.000000 -235.000000 31.521000 51 51 51
184.000000 -235.000000 31.321499 83 83 83
185.000000 -235.000000 26.334000 75 75 75
186.000000 -235.000000 26.334000 71 71 71
187.000000 -235.000000 26.533499 54 54 54
188.000000 -235.000000 26.533499 37 37 37
189.000000 -235.000000 26.533499 32 32 32
190.000000 -235.000000 26.733000 29 29 29
191.000000 -235.000000 26.733000 28 28 28
192.000000 -235.000000 26.533499 29 29 29
193.000000 -235.000000 26.533499 28 28 28
194.000000 -235.000000 26.134499 21 21 21
195.000000 -235.000000 25.934999 8 8 8
196.000000 -235.000000 25.934999 12 12 12
197.000000 -235.000000 25.934999 11 11 11
198.000000 -235.000000 26.134499 12 12 12
199.000000 -235.000000 26.134499 11 11 11
200.000000 -235.000000 26.334000 12 12 12
201.000000 -235.000000 26.134499 12 12 12
202.000000 -235.000000 25.735498 12 12 12
203.000000 -235.000000 25.735498 10 10 10
204.000000 -235.000000 25.735498 13 13 13
205.000000 -235.000000 25.735498 12 12 12
206.000000 -235.000000 25.735498 16 16 16
207.000000 -235.000000 25.735498 15 15 15
208.000000 -235.000000 25.535999 15 15 15
209.000000 -235.000000 25.535999 14 14 14
210.000000 -235.000000 25.535999 16 16 16
211.000000 -235.000000 25.535999 14 14 14
212.000000 -235.000000 25.535999 15 15 15
213.000000 -235.000000 25.535999 12 12 12
214.000000 -235.000000 25.535999 13 13 13
215.000000 -235.000000 25.535999 14 14 14
216.000000 -235.000000 25.735498 16 16 16
217.000000 -235.000000 25.735498 17 17 17
218.000000 -235.000000 25.934999 34 34 34
219.000000 -235.000000 26.134499 51 51 51
220.000000 -235.000000 26.334000 20 20 20
221.000000 -235.000000 26.533499 29 29 29
222.000000 -235.000000 26.533499 28 28 28
223.000000 -235.000000 26.334000 34 34 34
224.000000 -235.000000 15.959999 37 37 37
225.000000 -235.000000 15.760500 35 35 35
226.000000 -235.000000 15.760500 27 27 27
227.000000 -235.000000 15.760500 21 21 21
228.000000 -235.000000 15.760500 39 39 39
229.000000 -235.000000 15.959999 41 41 41
231.000000 -235.000000 16.159500 39 39 39
236.000000 -235.000000 16.957500 39 39 39
237.000000 -235.000000 16.957500 32 32 32
238.000000 -235.000000 16.757999 21 21 21
239.000000 -235.000000 16.757999 15 15 15
240.000000 -235.000000 16.757999 18 18 18
241.000000 -235.000000 16.558500 22 22 22
242.000000 -235.000000 16.558500 21 21 21
243.000000 -235.000000 16.558500 13 13 13
244.000000 -235.000000 16.358999 13 13 13
246.000000 -235.000000 16.957500 12 12 12
247.000000 -235.000000 24.538500 10 10 10
248.000000 -235.000000 24.737999 11 11 11
249.000000 -235.000000 24.737999 10 10 10
250.000000 -235.000000 24.937500 12 12 12
251.000000 -235.000000 25.136999 9 9 9
252.000000 -235.000000 25.136999 11 11 11
253.000000 -235.000000 25.136999 10 10 10
254.000000 -235.000000 25.136999 11 11 11
255.000000 -235.000000 25.136999 10 10 10
256.000000 -235.000000 25.136999 12 12 12
257.000000 -235.000000 24.937500 9 9 9
258.000000 -235.000000 24.937500 11 11 11
259.000000 -235.000000 24.937500 10 10 10
260.000000 -235.000000 24.937500 11 11 11
261.000000 -235.000000 24.937500 9 9 9
262.000000 -235.000000 24.937500 11 11 11
263.000000 -235.000000 24.937500 10 10 10
264.000000 -235.000000 24.937500 11 11 11
265.000000 -235.000000 24.937500 10 10 10
266.000000 -235.000000 24.937500 11 11 11
267.000000 -235.000000 24.937500 10 10 10
268.000000 -235.000000 24.937500 12 12 12
269.000000 -235.000000 24.937500 10 10 10
270.000000 -235.000000 24.937500 11 11 11
271.000000 -235.000000 24.937500 11 11 11
272.000000 -235.000000 24.737999 12 12 12
273.000000 -235.000000 24.538500 11 11 11
274.000000 -235.000000 24.338999 12 12 12
275.000000 -235.000000 24.338999 11 11 11
276.000000 -235.000000 24.538500 12 12 12
277.000000 -235.000000 24.538500 10 10 10
278.000000 -235.000000 24.737999 11 11 11
279.000000 -235.000000 24.737999 10 10 10
280.000000 -235.000000 24.937500 11 11 11
281.000000 -235.000000 24.937500 8 8 8
282.000000 -235.000000 24.937500 9 9 9
283.000000 -235.000000 24.937500 8 8 8
284.000000 -235.000000 24.937500 9 9 9
285.000000 -235.000000 24.937500 7 7 7
286.000000 -235.000000 24.937500 9 9 9
287.000000 -235.000000 24.937500 7 7 7
288.000000 -235.000000 24.937500 9 9 9
289.000000 -235.000000 24.937500 8 8 8
290.000000 -235.000000 24.937500 9 9 9
291.000000 -235.000000 24.937500 8 8 8
292.000000 -235.000000 24.937500 9 9 9
293.000000 -235.000000 24.937500 9 9 9
294.000000 -235.000000 24.937500 11 11 11
295.000000 -235.000000 24.937500 14 14 14
296.000000 -235.000000 24.737999 16 16 16
297.000000 -235.000000 24.737999 12 12 12
298.000000 -235.000000 24.538500 13 13 13
